0,0,0,0,0,0,0,50,51,51,52,52,52,52,53,52,52,52,52,62,62,62,62,62,58,58,59,59,59,60,59,60,60,59,59,34,34,34,34,34,34,34,34,34,34,34,34,34,34,33,33,33,33,33,33,33,33,35,46,46,33,33,33,33,33,33,33,33,33,33,33,33,33,33,33,34,35,35,35,35,35,35,35,35,34,35,34,34,34,34,34,34,34,34,34,34,34,34,34,34,34,34,34,34,34,34,33,33,33,34,39,39,35,35,35,47,33,33,33,33,33,33,33,33,33,33,33,33,33,33,33,33,33,32,32,32,32,32,32,32,32,32,32,32,32,32,31,30,31,31,31,31,31,31,31,31,31,31,31,31,31,32,32,32,32,32,32,32,32,32,32,32,32,32,32,33,33,33,33,33,33,33,33,33,33,33,33,33,33,33,33,33,33,33,33,33,33,33,33,33,33,33,33,33,33,33,35,35,35,35,35,35,35,35,35,35,35,35,35,35,35,35,36,36,36,36,36,36,36,36,36,36,36,35,35,35,35,35,35,35,35,35,35,35,35,35,35,33,33,33,33,33,33,33,33,33,33,33,33,33,33,33,33,33,33,33,34,34,34,34,34,34,34,35,35,35,35,35,35,35,35,35,35,35,35,35,35,35,35,35,35,35,35,35,35,35,35,35,35,35,35,35,36,36,38,38,38,38,38,38,38,38,38,38,38,38,38,38,38,38,38,38,38,38,38,38,38,38,38,38,38,38,38,38,38,38,38,38,38,38,38,38,39,40,40,40,40,40,40,40,40,40,40,40,40,40,40,40,43,43,43,43,43,43,43,43,43,43,40,40,40,40,40,40,40,40,40,40,40,40,40,40,40,40,40,41,41,41,41,41,41,41,41,41,41,42,27,27,27,27,27,27,27,27,27,27,52,52,52,8,8,40,11,11,12,42,42,42,42,42,40,40,10,40,40,40,40,40,40,40,40,40,40,40,40,40,40,40,40,40,40,40,40,40,40,40,40,0,0,0,0,0,0,0
0,0,0,0,0,0,0,50,51,51,52,52,52,53,53,53,53,40,40,62,62,62,62,62,62,59,59,59,62,62,59,62,62,59,59,59,34,34,34,34,34,34,34,34,34,34,34,34,34,34,34,34,33,35,35,33,35,35,46,46,33,33,33,33,33,33,33,33,33,33,33,33,33,33,33,34,35,35,35,35,35,34,35,34,34,34,34,34,34,34,34,34,34,34,34,34,34,34,34,34,34,34,34,34,34,34,33,33,34,34,34,35,35,35,35,35,33,33,33,33,33,33,33,33,33,33,33,33,33,33,33,33,33,32,32,32,32,32,32,32,32,32,32,32,32,31,31,31,31,31,31,31,31,31,31,31,31,31,31,31,31,31,32,32,32,32,32,32,32,32,32,32,32,32,33,33,33,33,33,33,33,33,33,33,33,33,33,33,33,33,33,33,33,33,33,33,33,33,33,33,33,33,33,33,33,45,35,35,35,35,35,35,35,35,35,35,35,35,35,35,35,36,36,36,36,36,36,36,36,36,36,36,36,36,35,35,35,35,35,35,35,35,35,35,35,35,35,33,33,33,33,33,33,33,33,33,33,33,33,33,33,33,33,33,33,33,34,34,34,34,34,34,34,34,34,35,35,35,35,35,35,35,35,35,35,35,35,35,35,35,35,35,35,35,35,35,35,35,35,35,35,35,36,37,38,38,38,38,38,38,38,38,38,38,38,38,38,38,38,38,38,38,38,38,38,38,38,38,38,38,38,38,38,38,38,38,38,38,38,38,38,38,39,40,40,40,40,40,40,40,40,40,40,40,40,40,40,43,43,43,43,43,43,43,43,43,43,43,40,40,40,40,40,40,40,40,40,40,40,40,40,40,40,40,35,41,41,41,41,41,41,41,41,41,41,42,27,27,27,27,27,27,27,27,27,27,28,52,28,8,8,0,0,42,3,42,42,42,42,42,42,42,10,10,40,40,40,40,40,40,40,40,40,40,40,40,40,40,40,40,40,40,40,40,40,40,40,0,0,0,0,0,0,0
0,0,0,0,0,0,0,50,50,51,51,52,53,53,53,53,53,53,53,62,62,62,62,62,53,62,62,62,62,62,62,62,62,62,60,59,34,34,34,34,34,34,34,34,34,34,34,34,34,34,34,34,34,35,35,33,35,35,46,46,33,33,33,33,33,33,33,33,33,33,33,33,33,33,33,34,34,35,35,35,35,34,34,34,34,34,34,34,34,34,34,34,34,34,34,34,34,34,34,34,34,34,34,34,34,34,34,33,34,34,35,35,35,35,35,35,35,35,35,35,33,33,33,33,33,33,33,33,33,33,33,33,33,33,32,32,32,32,32,32,32,32,32,32,32,31,31,31,31,31,31,31,31,31,31,31,31,31,31,31,31,31,32,32,32,32,32,32,32,32,33,33,33,33,33,33,33,33,33,33,33,33,33,33,33,33,33,33,33,33,33,33,33,33,33,33,33,33,33,33,33,33,33,33,33,45,35,35,35,35,35,35,35,35,35,35,35,35,35,35,36,36,36,36,36,36,36,36,36,36,36,36,36,35,35,35,35,35,35,35,35,35,35,35,35,35,35,33,33,33,33,33,33,33,33,33,33,33,33,33,33,33,33,33,33,34,34,34,34,34,34,34,34,34,34,34,35,35,35,35,35,35,35,35,35,35,35,35,35,35,35,35,35,35,35,35,35,35,35,35,35,35,36,38,38,38,38,38,38,38,38,38,38,38,38,38,38,38,38,38,38,38,38,38,38,38,38,38,38,38,38,38,38,38,38,38,38,38,38,38,38,38,38,39,40,40,40,40,40,40,40,40,40,40,40,40,43,43,43,43,43,43,43,43,43,43,43,43,40,40,40,40,40,40,40,40,40,40,40,40,40,40,40,40,35,41,41,41,41,41,41,41,41,41,41,42,27,27,27,27,27,27,27,27,27,27,28,52,0,0,0,0,0,42,3,42,42,42,42,42,42,42,10,42,42,40,40,40,40,40,40,40,40,40,40,40,40,40,40,40,40,40,40,40,40,40,40,0,0,0,0,0,0,0
0,0,0,0,0,0,0,1,50,51,51,52,53,53,53,53,53,41,53,54,54,53,62,53,53,53,59,59,62,62,59,62,56,62,60,59,25,34,34,34,34,34,34,34,34,34,34,34,34,34,34,34,34,35,35,35,35,35,46,46,46,33,33,33,33,33,33,33,33,33,32,32,33,33,33,34,34,35,35,35,35,34,34,34,34,34,34,34,34,34,34,34,34,34,34,34,34,34,34,34,34,34,34,34,34,34,34,34,34,35,35,35,35,35,35,35,35,35,30,30,35,33,33,33,33,33,33,33,33,33,33,33,33,33,33,32,32,32,32,32,32,32,32,32,32,32,31,31,31,31,31,31,31,31,31,31,31,31,31,31,31,31,32,32,32,32,32,32,32,33,33,33,33,33,33,33,33,33,33,33,33,33,33,33,33,33,33,33,33,33,33,33,33,33,33,33,33,33,33,33,33,33,33,33,33,35,35,35,35,35,35,35,35,35,35,35,35,35,35,36,36,36,36,36,36,36,36,36,36,36,36,36,36,35,35,35,35,35,35,35,35,35,35,35,35,35,35,33,33,33,33,33,33,33,33,33,33,33,33,33,33,33,33,33,33,34,34,34,34,34,34,34,34,34,34,34,34,35,35,35,35,35,35,35,35,35,35,35,35,35,35,35,35,35,35,35,35,35,35,35,35,37,38,38,38,38,38,38,38,38,38,38,38,38,38,38,38,38,38,38,38,38,38,38,38,38,38,38,38,38,38,38,38,38,38,38,38,38,38,38,38,38,38,38,38,40,40,40,40,40,40,40,40,40,42,43,3,4,43,43,43,43,43,43,43,43,43,12,40,40,40,40,40,40,40,40,40,40,40,40,40,40,40,35,31,41,41,41,41,41,41,41,41,41,41,42,42,27,27,27,27,27,27,27,27,0,0,28,0,0,0,0,58,58,3,3,42,42,42,42,42,42,10,42,42,42,40,40,40,40,40,40,40,40,40,40,40,40,40,40,40,40,40,40,40,40,40,0,0,0,0,0,0,0
0,0,0,0,0,0,0,1,50,51,51,52,53,53,53,53,41,41,53,53,53,53,62,53,53,53,59,59,62,62,60,60,56,57,60,24,25,34,34,34,34,34,34,34,34,34,34,34,34,34,34,34,35,35,35,35,35,35,46,46,46,33,33,33,33,33,33,33,33,33,32,32,33,33,33,34,34,35,35,35,35,34,34,34,34,34,34,34,34,34,34,34,34,34,34,34,34,34,34,34,34,34,34,34,34,34,34,34,34,34,35,35,35,35,35,35,35,35,30,30,35,33,33,33,33,33,33,33,33,33,33,33,33,33,33,33,32,32,32,32,32,32,32,32,32,32,31,31,31,31,31,31,31,31,31,31,31,31,31,31,31,31,32,32,32,32,32,32,32,33,33,33,33,33,33,33,33,33,33,33,33,33,33,33,33,33,33,33,33,33,33,33,33,33,33,33,33,33,33,33,33,33,33,35,35,35,35,35,35,35,35,35,35,35,35,35,35,35,36,36,36,36,36,36,36,36,36,36,36,36,36,36,36,35,35,35,35,35,35,35,35,35,35,35,35,35,35,33,33,33,33,33,33,33,33,33,33,33,33,33,33,33,33,33,34,34,34,34,34,34,34,34,34,34,34,34,34,34,34,34,35,35,35,35,35,35,35,35,35,35,35,35,35,35,35,35,35,35,35,35,36,38,38,38,38,38,38,38,38,38,38,38,38,38,38,38,38,38,38,38,38,38,38,38,38,38,38,38,38,38,38,38,38,38,38,38,38,38,38,38,38,38,38,38,38,38,38,38,39,40,40,40,40,40,42,43,3,4,43,43,43,43,43,43,43,43,12,12,40,40,40,40,40,40,40,40,40,40,40,40,40,40,40,35,15,15,15,41,41,41,41,41,41,41,41,42,42,27,27,27,27,27,27,27,27,3,0,58,58,58,58,57,58,58,58,58,42,11,42,42,40,42,10,42,42,42,40,40,40,40,40,40,40,40,40,40,40,40,40,40,40,40,40,40,40,40,40,0,0,0,0,0,0,0
0,0,0,0,0,0,0,1,1,51,1,2,1,53,53,53,41,53,53,53,53,53,53,53,53,53,56,59,59,60,60,60,56,24,24,24,25,34,34,34,34,34,34,34,34,34,34,34,34,34,34,34,35,35,35,35,35,35,46,46,46,41,41,33,33,33,33,33,33,33,32,32,33,33,33,34,34,35,35,35,35,34,34,34,34,34,34,34,34,34,34,34,34,34,34,34,34,34,34,33,33,34,34,34,34,34,34,34,34,34,35,35,35,35,35,35,35,25,30,30,35,33,33,33,33,33,33,33,33,33,33,33,33,33,33,33,32,32,32,32,32,32,32,32,32,32,32,31,31,31,31,31,31,31,31,31,31,31,31,31,31,31,31,32,32,32,32,32,33,33,33,33,33,33,33,33,33,33,33,33,33,33,33,33,33,33,33,33,33,33,33,33,33,33,33,33,33,33,33,33,33,33,35,35,35,35,35,35,35,35,35,35,35,35,35,35,35,35,36,36,36,36,36,36,36,36,36,36,36,36,36,36,36,35,35,35,35,35,35,35,35,35,35,35,35,35,35,33,33,33,33,33,33,33,33,33,33,33,33,33,33,33,33,33,34,34,34,34,34,34,34,34,34,34,34,34,34,34,34,34,34,35,34,34,35,35,35,35,35,35,35,35,35,35,35,36,36,36,36,35,37,38,38,38,38,38,38,38,38,38,38,38,38,38,38,38,38,38,38,38,38,38,38,38,38,38,38,38,38,38,38,38,38,38,38,38,38,38,38,38,38,38,38,38,38,38,38,38,38,40,38,39,40,40,42,3,3,4,5,43,43,43,43,43,43,12,12,12,40,40,40,40,40,40,40,40,40,40,40,40,40,40,35,14,15,15,15,41,41,41,41,41,41,41,41,42,42,42,27,27,27,27,27,27,3,3,0,58,58,58,58,58,58,58,58,58,58,11,42,42,42,42,10,42,42,42,42,40,40,40,40,40,40,40,40,40,40,40,40,40,40,40,40,40,40,40,40,0,0,0,0,0,0,0
0,0,0,0,0,0,0,1,1,51,1,2,1,53,53,53,41,53,53,53,53,53,53,53,53,53,56,59,59,62,60,56,56,24,24,24,24,34,34,34,34,34,34,34,34,34,34,34,34,34,34,34,35,35,35,35,35,35,46,46,36,36,36,36,33,33,33,33,33,33,32,32,33,33,33,34,35,35,35,35,35,35,34,34,34,34,34,34,34,34,34,34,34,34,34,34,34,34,34,33,33,33,33,33,33,33,34,33,34,30,30,35,35,35,35,35,35,30,30,30,35,35,33,33,33,33,33,33,33,33,33,33,33,33,33,33,33,33,32,32,32,32,32,32,32,32,31,31,31,31,31,31,31,31,31,31,31,31,31,31,31,31,32,32,32,32,32,32,33,33,33,33,33,33,33,33,33,33,33,33,33,33,33,33,33,33,33,33,33,33,33,33,33,33,33,33,33,33,33,33,33,33,35,35,35,35,35,35,35,35,35,35,35,35,35,35,35,36,36,36,36,36,36,36,36,36,36,36,36,36,36,36,36,35,35,35,35,35,35,35,35,35,35,35,35,35,35,33,33,33,33,33,33,33,33,33,33,33,33,33,33,33,33,34,34,34,34,34,34,34,34,34,34,34,34,34,34,34,34,34,34,34,34,34,35,35,35,35,35,35,35,35,35,36,36,37,37,37,37,38,38,38,38,38,38,38,38,38,38,38,38,38,38,38,38,38,38,38,38,38,38,38,38,38,38,38,38,38,38,38,38,38,38,38,38,38,38,38,38,38,38,38,38,38,38,38,38,38,38,38,38,39,40,40,4,4,4,4,5,43,43,43,43,43,43,12,12,12,40,40,40,40,40,40,40,40,40,40,40,40,40,34,35,14,14,14,15,41,41,41,41,41,41,41,41,42,42,42,41,42,27,27,3,3,3,3,3,58,58,58,58,58,58,58,58,58,58,11,42,42,42,42,51,52,42,42,42,40,40,40,40,40,40,40,40,40,40,40,40,40,40,40,40,40,40,40,40,0,0,0,0,0,0,0
0,0,0,0,0,0,0,1,0,43,1,2,2,53,53,41,41,41,53,53,54,56,53,53,53,55,56,56,62,62,60,60,60,24,24,24,24,34,34,34,34,34,34,34,34,34,34,34,34,34,34,34,35,35,35,35,35,35,36,46,36,36,36,36,33,26,33,33,33,33,32,32,33,33,33,34,35,35,35,35,35,35,34,34,34,34,34,34,34,34,34,34,34,34,34,34,34,34,33,33,33,33,33,33,33,33,33,33,30,30,30,30,35,35,35,35,35,30,30,30,35,33,33,33,33,33,33,33,33,33,33,33,33,33,33,33,33,33,33,33,33,32,32,32,32,32,31,31,31,31,31,31,31,31,31,31,31,31,31,31,31,31,32,32,32,32,32,32,33,33,33,33,33,33,33,33,33,33,33,33,33,33,33,33,33,33,33,33,33,33,33,33,33,33,33,33,33,35,33,33,33,33,34,35,35,35,35,35,35,35,35,35,35,35,35,35,36,36,36,36,36,36,36,36,36,36,36,36,36,36,36,36,36,35,35,35,35,35,35,35,35,35,35,35,35,35,35,34,33,33,33,33,33,33,33,33,33,33,33,33,33,33,33,34,34,34,34,34,34,34,34,34,34,34,34,34,34,34,34,34,34,34,34,34,34,35,35,35,35,35,35,35,35,37,37,37,37,37,38,38,38,38,38,38,38,38,38,38,38,38,38,38,38,38,38,38,38,38,38,38,38,38,38,38,38,38,38,38,38,38,38,38,38,38,38,38,38,38,38,38,38,38,38,38,38,38,38,38,38,38,38,38,39,40,4,4,4,4,5,5,43,43,43,43,43,12,12,40,40,40,40,40,40,40,40,40,40,40,40,40,33,34,34,14,14,14,41,41,41,41,41,41,41,41,41,42,42,42,41,42,42,42,3,3,3,3,3,58,58,58,58,58,58,58,58,58,58,58,42,42,52,42,52,52,42,42,42,40,40,40,40,40,40,40,40,40,40,40,40,40,40,40,40,40,40,40,40,0,0,0,0,0,0,0
0,0,0,0,0,0,0,1,0,51,2,2,2,2,2,55,41,41,41,42,55,56,51,53,53,60,56,56,57,62,60,60,60,60,24,24,27,27,34,34,34,34,34,34,34,34,34,34,34,34,34,34,35,35,35,35,35,35,36,46,36,36,41,36,36,26,33,33,33,32,32,32,33,33,33,34,35,35,35,35,35,35,34,34,34,34,34,34,34,34,34,34,34,34,34,34,34,34,33,33,33,33,33,33,33,33,33,30,30,30,30,30,30,30,30,30,30,30,30,30,35,33,33,33,33,33,33,33,33,33,33,33,33,33,33,33,33,33,33,33,33,33,32,32,32,32,32,31,31,31,31,31,31,31,31,31,31,31,31,31,31,31,32,32,32,32,32,32,33,33,33,33,33,33,33,33,33,33,33,33,33,33,33,33,33,33,33,33,33,33,33,33,33,33,33,33,34,35,33,33,33,33,34,35,35,35,35,35,35,35,35,35,35,35,35,35,36,36,36,36,36,36,36,36,36,36,36,36,36,36,36,36,36,35,35,35,35,35,35,35,35,35,35,35,35,35,35,34,34,34,33,33,33,33,33,33,33,33,33,33,33,33,34,34,34,34,34,34,34,34,34,34,34,34,34,34,34,34,34,34,34,34,34,34,34,35,35,35,35,35,35,35,37,37,37,37,38,38,38,38,38,38,38,38,38,38,38,38,38,38,38,38,38,38,38,38,38,38,38,38,38,38,38,38,38,38,38,38,38,38,38,38,38,37,37,38,38,38,38,38,38,38,38,38,38,38,38,38,38,38,38,38,38,38,4,4,4,4,5,5,37,37,43,43,43,12,12,40,40,40,40,40,40,40,40,40,40,40,40,40,33,34,34,23,23,6,42,42,42,42,42,42,41,42,42,42,42,41,41,42,42,42,4,3,3,3,4,58,58,58,58,58,58,58,58,58,58,58,42,42,42,42,52,42,42,42,42,40,40,40,40,40,40,40,40,40,40,40,40,40,40,40,40,40,40,40,40,0,0,0,0,0,0,0
0,0,0,0,0,0,0,0,0,0,2,2,2,2,2,3,41,41,41,41,60,56,51,53,53,53,60,53,53,53,60,60,60,24,24,24,24,27,30,30,34,34,34,34,34,34,34,34,34,34,34,34,35,35,35,35,35,35,35,41,36,41,41,36,36,26,26,33,33,32,32,32,33,33,33,34,35,35,35,35,35,35,35,35,35,35,35,34,34,34,34,34,34,34,34,33,34,33,33,33,33,33,33,33,33,33,33,30,30,30,30,30,30,30,30,30,30,30,30,30,35,33,34,33,33,33,33,33,33,33,33,33,33,33,33,33,33,33,33,33,33,33,33,33,32,32,32,32,31,31,31,31,31,31,31,31,31,31,31,31,31,32,32,32,32,32,32,32,33,33,33,33,33,33,33,33,33,33,33,33,33,33,33,33,33,33,33,33,33,33,33,33,33,33,33,35,35,35,33,33,33,33,34,35,35,35,35,35,35,35,35,35,35,35,35,36,36,36,36,36,36,36,36,36,36,36,36,36,36,36,36,36,36,35,35,35,35,35,35,35,35,35,35,35,35,35,35,34,34,34,34,33,33,33,33,33,33,34,33,33,33,34,34,34,34,34,34,34,34,34,34,34,34,34,34,34,34,34,34,34,34,34,34,34,34,35,35,35,35,35,35,35,37,37,37,38,38,38,38,38,38,38,38,38,38,38,38,38,38,38,38,38,38,38,38,38,38,38,38,38,38,38,38,38,38,38,38,12,38,38,38,38,37,37,37,37,38,38,38,38,38,38,38,38,38,38,38,38,38,38,38,38,38,38,38,37,37,37,37,37,37,37,38,43,21,40,40,40,40,40,40,40,40,40,40,40,40,40,40,6,33,33,34,23,6,6,42,42,6,42,42,42,42,42,42,42,42,42,41,42,42,42,4,4,3,3,4,58,58,58,58,58,58,58,58,58,58,58,42,42,42,42,42,42,42,42,42,40,40,40,40,40,40,40,40,40,40,40,40,40,40,40,40,40,40,40,40,0,0,0,0,0,0,0
0,0,0,0,0,0,0,0,0,0,2,2,2,2,3,3,3,7,41,41,41,41,58,53,15,15,50,53,53,53,20,20,24,24,24,24,24,28,30,30,34,34,34,34,34,34,34,34,34,35,35,35,35,35,35,35,35,35,35,41,41,41,41,36,36,26,26,26,36,32,32,32,33,33,33,34,35,35,35,35,35,35,55,35,35,35,35,35,34,34,34,34,34,34,33,33,33,33,33,33,33,33,33,33,33,33,33,30,30,30,30,30,30,30,30,30,30,30,30,30,35,34,34,33,33,33,33,33,33,33,33,33,33,33,33,33,33,33,33,33,33,33,33,33,32,32,32,32,31,31,31,31,31,31,31,31,31,31,31,31,31,32,32,32,32,32,33,33,33,33,33,33,33,33,33,33,33,33,33,33,33,33,33,33,33,33,33,33,33,33,33,33,35,33,35,35,35,35,33,33,33,33,34,35,35,35,35,35,35,35,35,35,35,35,36,36,36,36,36,36,36,36,36,36,36,36,36,36,36,36,36,36,36,35,35,35,35,35,35,35,35,35,35,35,35,35,35,35,34,34,34,33,33,33,33,33,33,34,33,34,33,34,34,34,34,34,34,34,34,34,34,34,34,34,34,34,34,34,34,34,34,34,34,34,34,35,35,35,35,35,35,37,38,38,38,38,38,38,38,38,38,38,38,38,38,38,38,38,38,38,38,38,38,38,38,38,38,38,38,38,38,38,38,38,38,38,12,12,38,38,38,38,37,37,37,37,37,38,38,38,38,38,38,38,37,38,38,38,38,38,38,38,38,38,38,37,37,37,37,37,37,37,37,38,21,10,40,40,40,40,40,40,40,40,40,40,40,40,40,6,6,33,6,22,6,6,42,42,42,42,42,42,42,42,42,42,42,41,41,42,42,42,4,4,3,3,4,58,58,58,58,58,58,58,58,58,58,58,42,42,42,42,42,42,42,42,42,40,40,40,40,40,40,40,40,40,40,40,40,40,40,40,40,40,40,40,40,0,0,0,0,0,0,0
0,0,0,0,0,0,0,0,0,0,0,2,2,2,3,3,7,7,7,7,8,12,12,15,15,16,16,19,19,20,20,20,24,24,24,24,27,28,30,30,30,34,34,34,34,34,34,34,35,35,35,35,35,35,35,35,35,35,35,41,41,41,41,36,26,26,26,33,33,32,32,32,33,33,33,30,35,35,35,35,35,55,55,35,35,35,35,34,34,34,34,34,34,34,33,33,33,33,33,33,33,33,33,33,33,33,33,30,30,30,30,30,30,30,30,30,30,30,30,30,30,33,34,33,33,33,33,33,33,33,33,34,34,33,33,33,33,33,33,33,33,33,33,33,32,32,31,31,31,31,31,31,31,31,31,31,31,31,31,31,31,31,32,32,32,32,33,33,33,33,33,33,33,33,33,33,33,33,33,33,33,33,33,33,33,33,33,33,33,33,33,33,35,33,35,35,35,35,33,33,33,33,34,35,35,35,35,35,35,35,35,35,35,35,36,36,36,36,36,36,36,36,36,36,36,36,36,36,36,36,36,36,36,35,35,35,35,35,35,35,35,35,35,35,35,35,35,35,35,34,34,33,33,33,34,34,34,34,34,34,33,34,34,34,34,34,34,34,34,34,34,34,34,34,34,34,34,34,34,34,34,34,34,34,34,34,35,35,35,35,35,37,38,38,38,38,38,38,38,38,38,38,38,38,38,38,38,38,38,38,38,38,38,38,38,38,38,38,38,38,38,38,38,37,37,12,12,12,38,38,38,38,37,37,37,37,38,37,38,38,38,38,38,38,37,37,38,38,38,38,38,38,38,38,37,37,37,37,37,37,37,37,38,38,40,40,40,40,40,40,40,40,40,40,40,40,40,40,40,6,33,33,34,22,42,42,42,42,42,42,42,42,42,42,42,42,42,41,41,42,42,42,4,3,3,3,4,58,3,3,58,58,58,58,58,58,58,42,42,42,42,42,42,42,42,42,42,40,40,40,40,40,40,40,40,40,40,40,40,40,40,40,40,40,40,40,40,0,0,0,0,0,0,0
0,0,0,0,0,0,0,0,0,0,0,2,2,2,2,3,7,7,7,7,8,12,13,14,15,16,16,16,19,20,20,20,24,24,24,24,27,28,30,30,34,34,34,34,34,34,34,35,35,35,35,35,35,35,35,35,35,35,35,35,41,41,41,36,26,26,26,33,33,32,32,32,33,33,33,30,35,35,35,35,35,35,55,35,35,35,35,34,34,34,34,34,34,34,33,33,33,33,33,33,33,33,33,33,33,33,33,30,30,30,30,30,30,30,30,30,30,30,30,30,30,33,34,33,33,33,33,33,33,33,33,34,34,34,34,34,33,33,33,33,33,33,33,33,33,32,31,31,31,31,31,31,31,31,31,31,31,31,31,31,31,32,32,32,33,33,33,33,33,33,33,33,33,33,33,33,33,33,33,33,33,33,33,33,33,30,30,30,33,33,33,34,35,35,35,35,35,35,33,33,33,33,34,35,35,35,35,35,35,35,35,35,35,36,36,36,36,36,36,36,36,36,36,36,36,36,36,36,36,36,36,36,36,35,35,35,35,35,35,35,35,35,35,35,35,35,35,35,35,35,35,35,34,34,34,34,34,34,34,34,34,34,34,34,34,34,34,34,34,34,34,34,34,34,34,34,34,34,34,34,34,34,34,34,34,34,35,35,37,37,37,37,38,38,38,38,38,38,38,38,38,38,38,38,38,38,38,38,38,38,38,38,38,38,38,38,38,38,38,38,38,38,37,37,37,33,12,12,37,38,38,38,37,37,37,37,38,38,38,38,38,38,38,38,37,37,38,38,38,38,38,38,38,38,37,37,37,37,37,38,37,38,38,38,40,40,40,40,40,40,40,40,40,40,40,40,40,40,40,36,42,33,35,42,42,42,42,42,42,42,42,42,42,42,42,42,41,41,41,41,41,41,4,3,3,3,4,3,3,3,3,58,58,58,42,58,42,42,42,42,42,42,42,42,42,42,42,40,40,40,40,40,40,40,40,40,40,40,40,40,40,40,26,40,40,40,40,0,0,0,0,0,0,0
0,0,0,0,0,0,0,0,0,0,0,2,2,2,2,3,7,7,7,7,8,12,13,14,15,16,16,17,19,19,20,20,24,24,24,27,27,27,30,30,34,34,34,34,34,34,34,35,35,35,35,35,35,35,35,35,35,35,35,35,35,40,41,36,26,26,26,33,33,32,32,32,33,33,30,30,35,35,35,35,35,30,30,35,35,35,35,34,34,34,34,34,34,34,33,33,33,33,33,33,33,33,33,33,33,33,30,30,30,30,30,30,30,30,30,30,30,30,30,30,30,33,34,33,33,33,33,33,33,33,33,34,34,34,34,34,33,33,33,33,33,34,33,33,33,33,33,33,31,31,31,31,31,31,31,31,31,31,31,31,31,31,33,33,33,33,33,33,33,33,33,33,33,33,33,33,33,33,33,33,33,33,33,33,32,30,30,30,30,33,33,33,35,35,35,35,35,35,33,33,33,33,34,35,35,35,35,35,35,35,35,35,36,36,36,36,36,36,36,36,36,36,36,36,36,36,36,36,36,36,36,36,36,35,35,35,35,35,35,35,35,35,35,35,35,35,35,35,35,35,35,35,34,34,34,34,34,34,34,34,34,34,34,34,34,34,34,34,34,34,34,34,34,34,34,34,34,34,34,34,34,34,34,34,34,34,35,37,37,37,37,37,38,38,38,38,38,38,38,38,38,38,38,38,38,38,38,38,38,38,38,38,38,38,38,38,38,37,38,38,38,38,38,32,33,33,12,12,38,38,8,9,9,37,37,38,38,38,38,38,38,38,38,38,37,38,38,38,38,38,38,38,38,38,38,38,37,37,37,38,37,38,38,38,40,40,40,40,40,40,40,40,40,40,40,40,40,40,40,36,42,42,35,42,42,42,42,42,42,42,42,42,42,42,42,41,41,41,41,41,41,41,4,3,4,3,4,4,4,4,4,58,42,42,42,42,42,42,42,42,42,42,42,42,42,42,42,40,40,40,40,40,40,40,40,40,40,40,40,40,25,25,25,25,27,30,30,0,0,0,0,0,0,0
0,0,0,0,0,0,0,0,0,0,0,2,4,4,3,3,7,7,9,7,8,12,13,14,15,16,16,17,19,19,21,20,20,24,27,27,27,27,30,30,30,34,34,34,34,34,34,35,35,35,35,35,35,35,35,35,35,35,35,35,35,40,35,36,36,26,33,33,33,33,32,32,33,33,30,30,35,35,35,35,35,30,34,34,34,34,34,34,34,34,34,33,34,33,33,33,33,33,33,33,33,33,33,33,32,30,30,30,30,30,30,30,30,30,30,30,30,30,30,30,30,30,34,33,33,33,33,33,33,33,34,34,34,34,34,34,34,33,34,33,33,34,34,33,33,33,33,33,31,31,31,31,31,31,31,31,31,31,31,31,31,33,33,33,33,33,33,33,33,33,33,33,33,33,33,33,33,33,33,33,33,33,33,30,32,30,30,30,30,33,33,33,35,35,35,35,35,33,33,33,33,33,34,35,35,35,35,35,35,35,35,36,36,36,36,36,36,36,36,36,36,36,36,36,36,36,36,36,36,36,36,36,36,35,35,35,35,35,35,35,35,35,35,35,35,35,35,35,35,35,35,35,34,34,34,34,34,34,34,34,34,34,34,34,34,34,34,34,34,34,34,34,34,34,34,34,34,34,34,34,34,34,34,34,34,34,37,37,37,37,37,37,38,38,38,38,38,38,38,38,38,38,38,38,38,38,38,38,38,38,38,38,38,38,38,38,38,37,38,38,38,38,38,32,33,33,12,12,38,38,38,38,9,37,9,38,38,8,38,38,38,38,38,38,37,38,38,38,38,38,38,38,38,38,38,38,37,37,37,38,35,38,38,38,40,40,40,40,40,40,40,40,40,40,40,40,40,40,36,40,40,42,35,42,42,42,42,42,42,42,42,42,42,42,42,41,41,41,41,41,41,41,41,41,3,4,4,42,4,4,4,42,42,42,42,42,42,42,42,42,42,42,42,42,42,42,42,40,40,40,40,40,40,40,40,40,40,40,40,40,25,25,25,35,35,30,30,0,0,0,0,0,0,0
0,0,0,0,0,0,0,0,0,0,0,0,4,4,2,3,7,7,7,7,12,12,12,14,15,16,16,17,17,19,21,20,21,21,24,27,27,27,29,30,30,34,34,34,34,34,35,35,35,35,35,35,35,35,35,35,35,35,35,35,40,40,35,35,36,36,33,33,33,33,33,32,33,30,30,30,35,35,35,35,35,30,34,34,34,34,34,34,34,34,34,33,33,33,33,33,33,32,33,33,33,32,30,30,32,30,30,30,30,30,30,30,30,30,30,30,30,30,30,30,30,30,34,33,33,33,33,33,33,33,34,34,34,34,34,34,34,34,34,34,34,34,34,34,33,33,33,33,33,33,33,31,31,31,31,31,31,31,31,33,33,33,33,33,33,33,33,33,33,33,33,33,33,33,33,33,33,33,33,33,33,33,33,30,32,30,30,30,33,33,33,33,35,35,35,35,35,33,33,33,33,33,34,35,35,35,35,35,35,35,35,36,36,36,36,36,36,36,36,36,36,36,36,36,36,36,36,36,36,36,36,36,35,35,35,35,35,35,35,30,35,35,30,30,30,30,30,30,30,30,30,35,43,34,34,34,34,34,34,34,34,34,34,34,34,34,34,34,34,34,34,34,34,34,34,34,34,34,34,34,34,34,34,34,34,34,35,37,37,37,37,38,38,38,38,38,38,38,38,38,38,38,38,38,38,38,38,38,38,38,38,38,38,38,38,38,37,37,38,38,38,38,38,32,33,33,33,11,38,38,38,10,10,9,9,38,38,38,38,38,38,38,38,37,37,37,38,38,38,37,38,37,37,37,37,37,37,37,37,37,37,37,38,38,38,40,40,40,40,40,40,40,40,40,40,40,40,40,40,40,40,39,36,42,42,42,42,42,42,42,42,42,42,41,42,41,41,41,41,41,41,41,41,41,41,4,4,42,4,4,4,42,42,42,42,42,42,42,42,42,42,42,42,42,42,42,42,42,42,40,40,40,40,40,40,40,40,40,40,40,25,25,25,35,35,35,40,0,0,0,0,0,0,0
0,0,0,0,0,0,0,0,0,0,0,0,4,4,4,3,4,7,7,7,8,12,12,14,15,16,16,17,17,20,20,20,20,21,22,27,27,27,29,30,30,34,34,34,34,35,35,35,35,35,35,35,35,35,35,35,35,35,35,35,35,35,35,35,35,36,33,33,33,33,33,33,30,30,30,30,35,35,35,35,35,35,34,34,34,34,34,34,34,34,33,33,33,33,33,33,32,32,32,33,32,30,30,30,30,30,30,30,30,30,30,30,30,30,30,30,30,30,30,30,35,30,34,33,33,33,33,33,33,33,34,34,34,34,34,34,34,34,34,34,34,34,34,34,34,34,33,33,33,33,33,31,31,31,31,31,32,31,33,33,33,34,33,34,34,34,33,34,33,33,33,33,33,33,33,33,33,33,33,33,33,33,33,30,32,30,30,30,33,33,33,33,35,35,35,35,33,33,33,33,33,33,34,35,35,35,35,35,35,35,35,36,36,36,36,36,36,36,36,36,36,36,36,36,36,36,36,36,36,36,36,36,35,35,35,35,35,35,35,30,30,35,30,30,30,30,30,30,30,30,30,30,13,30,35,35,34,34,34,34,34,34,34,34,34,34,34,34,34,34,34,34,34,34,34,34,34,34,34,34,34,34,34,34,34,35,35,37,37,37,37,38,38,38,38,38,38,38,38,38,38,38,38,38,38,38,38,38,38,38,38,38,38,38,38,38,37,37,38,38,38,38,38,32,33,33,38,38,38,38,38,38,39,37,38,38,38,38,38,38,38,38,38,37,37,37,38,38,37,37,37,37,37,37,37,37,37,37,37,37,37,38,38,38,38,40,40,40,40,40,40,40,40,40,40,40,40,40,39,40,39,39,38,41,42,42,42,42,42,42,42,42,42,41,42,41,41,41,41,41,41,41,41,41,41,41,4,42,4,4,4,42,42,42,42,42,42,42,42,42,42,42,42,42,42,42,42,42,42,40,40,40,40,40,40,40,40,40,40,40,40,40,35,35,36,40,40,0,0,0,0,0,0,0
0,0,0,0,0,0,0,0,0,0,0,0,0,2,2,3,4,7,7,7,8,12,12,14,14,16,16,16,16,19,19,20,21,21,22,27,27,27,29,30,30,30,34,34,35,35,35,35,35,35,35,35,35,35,35,35,35,35,35,35,35,35,35,35,40,40,40,33,33,33,33,33,30,30,30,30,35,35,35,35,35,35,35,35,34,34,34,34,34,34,33,33,33,33,33,33,32,32,32,30,30,30,30,30,30,30,30,30,30,30,30,30,30,30,30,30,30,30,30,35,35,34,34,34,34,34,33,33,33,33,34,34,34,34,34,34,34,34,34,34,34,34,34,34,34,34,33,34,33,33,33,34,33,34,34,34,34,33,34,34,34,34,34,34,34,34,34,34,34,33,33,33,33,33,33,33,33,33,33,33,33,33,33,30,32,30,30,30,33,33,33,33,35,35,33,35,33,33,33,33,33,33,35,35,35,35,35,35,35,35,35,36,36,36,36,36,36,36,36,36,36,36,36,36,36,36,36,36,36,36,36,36,35,35,35,35,35,35,35,30,30,30,30,30,30,30,30,30,30,30,30,30,13,30,35,35,34,34,34,34,34,34,34,34,34,34,34,34,34,34,34,34,34,34,34,34,34,34,34,34,34,34,34,34,34,35,37,37,37,37,37,38,38,38,38,38,38,38,38,38,38,38,38,38,58,58,38,38,38,38,38,38,38,38,38,38,37,37,38,38,38,38,38,38,33,33,38,38,38,38,38,38,39,37,38,38,38,38,38,38,38,38,38,37,37,37,37,37,37,37,37,37,37,37,37,37,37,37,37,37,37,38,38,38,38,40,40,40,40,40,40,40,40,40,40,40,40,39,39,39,39,39,41,41,42,41,42,41,42,42,42,42,42,41,41,41,41,41,41,41,41,41,41,41,41,41,41,41,4,4,4,42,42,42,42,42,42,42,42,42,42,42,42,42,42,42,42,40,40,40,40,40,40,40,40,40,40,40,40,40,40,40,35,35,35,40,40,0,0,0,0,0,0,0
0,0,0,0,0,0,0,0,0,0,0,0,4,4,4,4,7,7,9,7,12,12,12,14,14,16,16,16,16,19,19,20,21,21,22,27,27,28,29,30,30,34,34,34,35,35,35,35,35,35,35,35,35,35,35,35,35,35,35,35,35,35,35,35,40,40,33,33,33,33,33,33,30,30,35,35,35,35,35,35,35,35,35,35,35,35,35,34,34,33,33,33,33,33,33,32,32,32,32,30,30,30,30,30,30,30,30,30,30,30,30,30,30,30,30,30,30,30,30,34,34,34,34,34,34,34,33,34,34,34,34,34,34,34,34,34,34,34,34,34,34,34,34,34,34,34,34,34,34,33,33,34,34,34,34,34,34,34,34,34,34,34,34,34,34,34,34,34,34,33,33,33,33,33,33,33,33,33,33,33,33,33,33,30,30,30,30,30,33,33,33,33,35,35,33,35,35,33,33,33,33,34,35,35,35,35,35,35,35,35,35,36,36,36,36,36,36,36,36,36,36,36,36,36,36,36,36,36,36,36,36,36,36,35,35,35,35,35,35,30,30,30,30,30,30,30,30,30,30,30,30,30,30,30,35,35,30,34,34,34,34,34,34,34,34,34,34,34,34,34,34,34,34,34,34,34,34,34,34,34,34,34,34,34,36,37,37,37,37,37,38,38,38,38,38,38,38,38,38,38,38,38,38,58,58,56,56,38,38,38,38,38,38,38,37,37,37,37,38,38,38,38,38,38,38,33,38,38,38,38,38,38,38,38,38,38,38,38,38,38,38,38,37,37,37,37,37,37,37,37,37,37,37,37,37,37,37,37,37,37,37,37,38,38,38,39,40,39,40,40,39,39,39,39,39,39,39,39,39,39,39,39,41,41,41,41,41,41,41,41,41,42,42,41,41,41,41,41,41,41,41,41,41,41,41,41,41,41,4,4,4,4,42,42,42,42,42,42,42,42,42,42,42,42,42,42,42,40,40,40,40,40,40,40,40,40,40,40,40,40,40,40,35,35,35,40,40,0,0,0,0,0,0,0
0,0,0,0,0,0,0,0,0,0,0,0,2,2,2,3,9,9,9,12,12,12,12,14,14,16,16,16,16,19,21,20,22,22,22,28,27,28,30,30,30,30,30,34,35,35,35,35,35,35,35,35,35,35,35,35,35,35,35,35,35,35,35,35,40,40,33,33,33,33,33,33,30,30,35,35,35,35,35,35,35,35,35,35,35,35,35,34,34,33,33,33,33,33,33,32,32,30,30,30,30,30,30,30,30,30,30,30,30,30,30,30,30,30,30,30,30,30,30,34,34,34,34,34,34,34,34,34,34,34,34,34,34,34,34,34,34,34,34,34,34,34,34,34,34,34,34,34,34,33,33,34,34,34,34,34,34,34,34,34,34,34,34,34,34,34,34,34,34,33,33,33,33,33,33,33,33,33,33,33,33,33,33,30,32,30,30,33,33,33,33,33,35,33,33,33,33,33,33,33,33,34,35,35,35,35,35,35,35,35,35,36,36,36,36,36,36,36,36,36,36,36,36,36,36,36,36,36,36,36,36,36,36,35,35,35,35,35,30,30,30,30,30,30,30,30,30,30,30,30,30,30,30,30,35,30,35,34,34,34,34,34,34,34,34,34,34,34,34,34,34,34,34,34,34,34,34,34,34,34,34,34,34,35,36,37,37,37,37,37,38,38,38,38,38,38,38,38,38,38,58,58,58,58,58,58,56,38,38,52,38,38,38,38,37,37,37,37,38,38,38,38,38,38,38,38,38,38,38,38,38,38,38,38,38,38,38,38,38,38,38,38,37,37,37,37,37,37,37,37,37,37,37,37,37,37,37,37,37,37,37,37,38,38,38,39,40,39,39,39,39,39,39,39,39,39,39,39,39,39,39,39,41,41,41,41,41,41,41,41,41,41,41,41,41,41,41,41,41,41,41,41,41,41,41,41,41,41,41,41,4,4,42,42,42,42,42,42,42,42,42,42,42,42,42,42,42,40,40,40,40,40,40,40,40,40,40,40,40,40,40,35,35,35,40,40,40,0,0,0,0,0,0,0
0,0,0,0,0,0,0,0,0,0,0,0,2,2,2,3,9,9,9,12,12,12,12,14,14,16,16,20,21,20,21,21,22,21,27,28,29,30,30,30,30,34,30,35,35,35,35,35,35,35,35,35,35,35,35,35,35,35,35,35,35,35,35,35,35,33,33,33,33,33,33,33,30,30,30,35,35,35,35,35,35,35,35,35,35,35,35,34,33,32,33,33,33,33,33,32,32,30,30,30,30,30,30,30,30,30,30,30,30,30,30,30,30,30,30,30,30,30,30,30,34,34,34,34,34,34,34,34,34,34,34,34,34,34,34,34,34,34,34,34,34,34,34,34,34,34,34,34,34,34,33,34,34,34,34,34,34,34,34,34,34,34,34,34,34,35,34,34,34,33,33,33,33,33,33,33,33,33,33,33,33,33,32,32,32,30,32,32,33,33,33,33,35,33,33,33,33,33,33,33,33,34,35,35,35,35,35,35,35,35,36,36,36,36,36,36,36,36,36,36,36,36,36,36,36,36,36,36,36,36,36,36,36,35,35,35,35,35,30,30,30,30,30,30,30,30,30,30,30,30,30,30,30,30,30,30,30,34,34,34,34,34,34,34,34,34,34,34,34,34,34,34,34,34,34,34,34,34,34,34,34,34,34,35,36,36,37,37,37,38,38,38,38,38,38,38,38,38,38,38,58,58,58,59,59,58,59,51,52,52,38,38,37,37,37,37,37,37,38,38,38,38,38,38,38,38,38,38,38,38,38,38,38,38,38,38,38,38,38,38,38,38,37,37,37,37,37,37,37,37,37,37,37,37,37,37,37,37,37,37,37,37,37,38,38,39,39,39,39,39,39,39,39,39,39,39,39,39,39,39,39,39,41,41,41,41,41,41,41,41,41,41,41,41,41,41,41,41,41,41,41,41,41,41,41,41,41,41,41,41,4,4,42,42,42,42,42,42,42,42,42,42,42,42,42,42,42,40,40,40,40,40,40,40,40,40,40,40,40,40,40,35,35,35,17,40,40,0,0,0,0,0,0,0
0,0,0,0,0,0,0,0,0,0,0,0,0,4,2,3,9,8,9,12,12,12,12,14,14,16,16,21,21,21,21,21,21,21,27,28,29,30,30,30,30,30,30,35,35,35,35,35,35,35,35,35,35,35,35,35,35,35,35,35,35,35,35,35,40,33,33,33,33,33,33,34,30,30,30,30,35,35,35,35,35,35,35,35,35,35,35,32,32,32,33,33,33,33,32,32,32,30,30,30,30,30,30,30,30,30,30,30,30,30,30,30,30,30,30,30,30,30,30,30,34,30,34,34,34,34,34,34,34,34,34,34,34,34,34,34,34,34,34,34,34,34,34,34,34,34,34,34,34,34,34,34,34,34,34,34,34,34,34,34,34,34,34,34,34,34,34,34,34,33,33,33,33,33,33,33,33,33,33,33,33,33,32,30,32,30,32,32,33,33,33,33,35,32,33,33,33,33,33,33,33,35,35,35,35,35,35,35,35,35,36,36,36,36,36,36,36,36,36,36,36,36,36,36,36,36,36,36,36,36,36,36,36,35,35,35,35,35,30,30,30,30,30,30,30,30,30,30,30,30,30,30,30,30,30,30,34,35,35,34,34,34,34,34,34,34,34,34,34,34,34,34,34,34,34,34,34,34,34,34,34,34,34,35,36,36,37,37,37,37,38,38,38,38,38,38,38,38,38,38,58,58,58,59,59,58,50,50,50,50,50,37,37,36,37,37,37,37,38,38,38,38,38,38,38,38,38,38,38,38,38,38,38,38,38,38,38,38,38,38,38,37,37,37,37,37,37,37,37,37,37,37,37,37,37,37,37,36,37,37,37,37,36,38,38,39,39,39,39,39,39,39,39,39,39,39,39,39,39,39,39,40,41,41,41,41,41,41,41,41,41,41,41,41,41,41,41,41,41,41,41,41,41,41,41,41,41,41,41,41,4,4,42,42,42,42,42,42,42,42,42,42,42,42,42,40,40,40,40,40,40,40,40,40,40,40,40,40,40,40,35,35,35,36,40,40,40,0,0,0,0,0,0,0
0,0,0,0,0,0,0,0,0,0,0,0,0,2,2,8,9,8,9,12,13,14,12,14,14,16,16,21,21,21,21,21,21,21,22,28,29,29,29,30,30,30,35,35,35,35,35,35,35,35,35,35,35,35,35,35,35,35,35,35,35,35,35,35,35,35,33,33,33,33,33,34,30,30,30,30,30,30,30,30,30,30,30,35,35,30,32,32,32,32,33,33,33,33,32,32,32,30,30,30,30,30,30,30,30,30,30,30,30,30,30,30,30,30,30,30,30,30,30,30,30,30,34,34,34,34,34,34,34,34,34,34,34,34,34,34,34,34,34,34,34,34,34,34,34,34,34,34,34,34,34,34,34,34,34,34,34,34,34,34,34,34,34,34,34,34,34,34,33,33,33,33,33,33,33,33,33,33,33,33,33,30,30,31,32,30,32,33,33,33,33,33,32,33,33,33,33,33,33,33,33,35,35,35,35,35,35,35,35,35,36,36,36,36,36,36,36,36,36,36,36,36,36,36,36,36,36,36,36,36,36,36,35,35,35,35,35,35,30,30,30,30,30,30,30,30,30,30,30,30,30,30,30,30,35,30,34,34,35,34,34,34,34,34,34,34,34,34,34,34,34,34,34,34,34,34,34,34,34,34,34,34,35,35,35,37,37,37,37,37,38,38,38,38,38,38,38,38,38,58,50,50,58,59,58,58,50,50,50,50,50,37,37,36,37,37,37,37,37,38,38,38,38,38,38,38,38,38,38,38,38,38,38,38,38,38,38,38,38,37,38,37,37,37,37,37,37,37,37,37,37,37,37,36,37,36,36,36,36,36,36,37,36,38,38,39,39,39,39,39,39,39,39,39,39,39,39,39,39,39,39,40,41,41,41,41,41,41,41,41,41,41,41,41,41,41,41,41,41,41,41,41,41,41,41,41,41,41,41,41,4,4,42,42,42,42,42,42,42,42,42,42,42,40,40,40,40,40,40,40,40,40,40,40,40,40,40,40,40,35,35,35,35,36,40,40,40,0,0,0,0,0,0,0
0,0,0,0,0,0,0,0,0,0,0,0,0,2,2,8,9,8,9,12,13,12,12,14,14,14,14,21,21,22,22,22,22,22,22,28,29,29,30,30,30,30,30,35,35,35,35,35,35,35,35,35,35,35,35,35,35,35,35,35,35,35,35,35,35,35,35,33,33,33,33,30,30,30,30,30,30,30,30,30,30,30,30,30,30,30,30,32,32,32,32,33,33,32,32,32,30,30,30,30,30,30,30,30,30,30,30,30,30,30,30,30,30,30,30,30,30,30,30,30,30,30,35,35,34,34,34,34,34,34,34,34,34,34,34,34,34,34,34,34,34,34,34,34,34,34,34,34,34,34,34,34,34,34,34,34,34,34,34,34,34,34,34,34,34,34,34,33,33,33,33,33,33,33,33,33,33,33,33,33,33,30,30,31,32,32,32,32,32,32,33,33,32,32,33,35,35,35,35,35,35,35,35,35,35,35,35,35,35,36,36,36,36,36,36,36,36,36,36,36,36,36,36,36,36,36,36,36,36,36,36,36,35,35,35,35,35,35,30,30,30,30,30,30,30,30,30,30,30,30,30,30,30,30,35,35,35,35,35,35,34,34,34,34,34,34,34,34,34,34,34,34,34,34,34,34,34,34,34,34,34,34,35,35,35,35,37,37,37,37,38,38,38,38,38,38,38,38,38,1,50,50,50,59,60,50,50,50,50,50,50,37,37,36,37,37,37,37,37,37,38,38,38,38,38,38,38,38,38,38,38,38,38,38,38,38,38,38,38,37,38,37,37,37,37,37,37,37,37,37,37,37,36,36,36,36,36,36,36,36,36,37,36,38,38,39,39,39,39,39,39,39,39,39,39,39,39,39,39,40,40,40,41,41,41,41,41,40,40,41,40,40,40,41,41,41,41,41,41,41,41,41,41,41,41,41,41,41,41,41,41,41,41,41,41,41,42,42,42,42,42,41,40,40,40,40,40,40,40,40,40,40,40,40,40,40,40,40,35,35,35,35,35,36,40,40,40,0,0,0,0,0,0,0
0,0,0,0,0,0,0,0,0,0,0,0,0,1,2,8,9,10,9,12,13,14,12,14,14,14,14,21,21,22,22,22,22,22,27,27,27,28,30,30,30,30,35,35,35,35,35,35,35,35,35,35,35,35,35,35,35,35,35,35,35,35,35,35,35,35,35,34,34,30,30,30,30,30,30,30,30,30,30,30,30,30,30,30,30,30,30,32,32,32,32,32,32,32,32,32,30,30,30,30,30,30,30,30,30,30,30,30,30,30,30,30,30,30,30,30,30,30,30,30,30,30,30,30,35,34,34,34,34,34,34,34,34,34,34,34,34,34,34,34,34,34,34,34,34,34,34,34,34,34,34,34,34,34,34,34,34,34,34,34,34,34,34,34,34,34,33,33,33,33,33,33,33,33,33,33,33,33,33,33,30,30,30,31,32,30,32,32,33,33,33,33,32,32,33,33,35,35,35,35,35,35,35,35,35,35,35,35,35,36,36,36,36,36,36,36,36,36,36,36,36,36,36,36,36,36,36,36,36,36,36,36,35,35,35,35,35,30,30,30,30,30,30,30,30,30,30,30,30,30,30,30,30,35,35,35,35,35,35,35,34,34,34,34,34,34,34,34,34,34,34,34,34,34,34,34,34,34,34,34,34,34,35,35,35,35,37,40,40,40,38,38,40,38,38,38,38,38,38,1,50,50,59,59,59,50,50,50,50,50,50,37,37,36,37,37,37,37,37,37,38,38,38,38,38,37,38,38,38,38,38,38,38,38,38,38,38,38,38,38,38,37,37,37,37,37,37,37,37,37,37,37,36,36,36,36,36,36,36,36,36,37,36,36,38,39,39,39,39,39,39,39,39,39,39,39,39,39,39,40,40,40,41,40,40,40,40,40,40,40,40,40,40,41,41,41,41,41,41,41,41,41,41,41,41,41,41,41,41,41,41,36,41,41,41,41,41,41,41,41,41,36,37,37,37,37,40,40,40,35,40,35,36,36,35,35,35,35,35,35,35,35,35,36,40,40,40,0,0,0,0,0,0,0
0,0,0,0,0,0,0,0,0,0,0,0,0,1,2,8,9,10,9,12,13,14,14,14,14,14,14,21,21,22,22,22,22,27,27,27,27,30,30,30,30,30,35,35,35,35,35,35,35,35,35,35,35,35,35,35,35,35,35,35,35,35,35,35,35,35,35,34,30,30,30,30,30,30,30,30,30,30,30,30,30,30,30,30,30,30,30,30,32,32,32,32,32,32,30,30,30,30,30,30,30,30,30,30,30,30,30,30,30,30,30,30,30,30,30,30,30,30,30,30,30,30,30,30,30,30,34,34,34,34,34,34,34,34,34,34,34,34,34,34,34,34,34,34,34,34,34,34,34,34,34,34,34,34,34,34,34,34,34,34,34,34,34,34,34,33,33,33,33,33,33,33,33,33,33,33,33,33,33,33,30,30,30,30,30,30,30,32,32,32,33,32,32,32,33,33,35,35,35,35,35,35,35,35,35,35,35,35,35,36,36,36,36,36,36,36,36,36,36,36,36,36,36,36,36,36,36,36,36,36,36,35,35,35,35,35,35,30,30,30,30,30,30,30,30,30,30,30,30,30,30,30,30,35,35,35,35,35,35,35,34,34,34,34,34,34,34,34,34,34,34,34,34,34,34,34,34,34,34,34,34,34,35,35,40,40,40,40,40,40,40,40,40,40,38,38,38,38,1,1,50,50,59,59,60,50,50,37,50,50,37,37,37,36,37,37,37,37,37,37,37,38,38,38,38,37,37,38,38,38,38,38,38,38,38,38,38,38,38,37,38,37,37,37,37,37,37,37,37,37,36,36,36,36,36,36,36,36,36,36,36,36,36,36,36,39,39,39,39,39,39,39,39,39,39,39,39,39,39,40,40,40,41,40,40,40,40,40,40,40,40,40,40,40,41,41,41,41,41,41,41,41,41,41,41,41,41,41,41,41,36,36,36,36,36,41,41,41,37,37,36,36,37,37,37,37,37,37,37,37,37,37,36,37,37,37,37,37,35,35,35,35,35,36,36,40,40,0,0,0,0,0,0,0
0,0,0,0,0,0,0,0,0,0,0,0,0,1,2,8,9,10,9,12,13,12,12,14,14,14,14,21,21,22,22,22,22,27,27,27,27,30,30,30,30,34,35,35,35,35,35,35,35,35,35,35,35,35,35,35,35,35,35,35,35,35,35,35,35,35,35,34,34,30,30,30,30,30,30,30,30,30,30,30,30,30,30,30,30,30,30,30,31,32,30,30,30,30,30,30,30,30,30,30,30,30,30,30,30,30,30,30,30,30,30,30,30,30,30,30,30,30,30,30,30,30,30,30,30,35,34,34,34,34,34,34,34,34,34,34,34,34,34,34,34,34,34,34,34,34,34,34,34,34,34,34,34,34,34,34,34,34,34,34,34,34,34,34,34,33,33,33,33,33,33,33,33,33,33,33,33,33,33,33,30,30,30,30,30,30,32,32,32,32,33,32,32,32,35,35,35,35,35,35,35,35,35,35,35,35,35,35,36,36,36,36,36,36,36,36,36,36,36,36,36,36,36,36,36,36,36,36,36,36,36,35,35,35,35,35,35,30,30,30,30,30,30,30,30,30,30,30,30,30,30,30,30,30,35,35,35,35,35,35,35,34,34,34,34,34,34,34,34,34,34,34,34,34,34,34,34,34,34,34,34,35,35,35,40,40,40,40,40,40,40,40,40,40,35,35,35,35,35,50,50,50,59,60,60,60,37,37,37,37,37,37,37,36,37,37,37,37,37,37,37,38,38,38,37,37,37,37,38,38,38,38,38,38,38,38,38,37,37,37,38,37,37,37,37,37,37,37,37,37,36,36,36,36,36,36,36,36,36,36,36,36,36,36,36,39,39,39,39,39,39,39,39,39,39,39,39,39,39,39,40,40,41,40,40,40,40,40,40,40,40,40,40,40,41,41,41,41,41,41,41,41,41,41,41,41,41,41,41,41,36,36,36,36,36,36,36,36,36,36,36,36,37,37,37,37,37,37,37,37,37,37,36,37,37,37,37,37,35,35,35,35,36,36,36,36,40,0,0,0,0,0,0,0
0,0,0,0,0,0,0,0,0,0,0,1,0,1,2,6,9,10,12,12,13,12,12,14,14,14,14,22,22,22,22,22,22,27,27,27,29,30,30,30,30,34,35,35,35,35,35,35,35,35,35,35,35,35,35,35,35,35,35,35,35,35,35,35,35,35,35,34,30,30,30,30,30,30,30,30,30,30,30,30,30,30,30,30,30,30,30,30,30,30,30,30,30,30,30,30,30,30,30,30,30,30,30,30,30,30,30,30,30,30,30,30,30,30,30,30,30,30,30,30,30,30,30,35,35,34,34,34,34,34,34,34,34,34,34,34,34,34,34,34,34,34,34,34,34,34,34,34,34,34,34,34,34,34,34,34,34,34,34,34,34,34,34,34,33,33,33,33,33,33,33,33,33,33,33,33,33,33,33,30,30,30,30,30,30,30,32,32,32,32,33,32,32,32,33,35,35,35,35,35,35,35,35,35,35,35,35,35,36,36,36,36,36,36,36,36,36,36,36,36,36,36,36,36,36,36,36,36,36,36,35,35,35,35,35,35,35,30,30,30,30,30,30,30,30,30,30,30,30,30,30,30,30,30,30,30,35,35,35,35,35,34,34,34,34,34,34,34,34,34,34,34,34,34,34,34,34,34,34,34,34,34,35,35,40,40,40,40,40,40,40,40,40,40,35,35,35,35,35,35,50,50,50,60,60,60,37,37,37,37,37,37,37,37,37,37,37,37,37,37,37,37,38,38,37,37,37,37,37,38,38,38,38,38,38,37,37,37,37,37,37,37,37,37,37,37,37,37,37,37,36,36,36,36,36,36,36,36,36,36,36,36,36,36,36,39,39,39,39,39,39,39,39,39,39,39,39,39,39,39,40,40,40,40,40,40,40,40,40,40,40,40,40,40,40,41,41,41,41,41,41,41,41,41,41,41,41,41,41,41,36,36,36,36,36,36,36,36,36,36,36,36,36,36,37,37,37,37,37,37,37,37,36,37,37,37,37,37,37,35,36,35,36,36,36,50,55,0,0,0,0,0,0,0
0,0,0,0,0,0,0,0,0,0,0,0,0,1,2,6,7,8,9,12,13,12,12,14,14,22,23,22,23,22,27,27,27,27,27,28,29,30,30,30,34,34,35,35,35,35,35,35,35,35,35,35,35,35,35,35,35,35,35,35,35,35,35,35,35,35,35,34,30,30,30,30,30,30,30,30,30,30,30,30,30,30,30,30,30,30,30,30,30,30,30,30,30,30,30,30,30,30,30,30,30,30,30,30,30,30,30,30,30,30,30,30,30,30,30,30,30,30,30,30,30,30,35,35,35,34,34,34,34,34,34,34,34,34,34,34,34,34,34,34,34,34,34,34,34,34,34,34,34,34,34,34,34,34,34,34,34,34,34,34,34,34,34,33,33,33,33,33,33,33,33,33,33,33,33,33,33,33,33,30,30,30,30,30,35,30,32,32,32,32,33,32,32,32,35,35,35,35,35,35,35,35,35,35,35,35,35,35,36,36,36,36,36,36,36,36,36,36,36,36,36,36,36,36,36,36,36,36,36,35,35,35,35,35,35,35,35,30,30,30,30,30,30,30,30,30,30,30,30,30,30,30,30,30,30,30,30,35,35,35,35,34,34,34,34,34,34,34,34,34,34,34,34,34,34,34,34,34,34,34,34,34,35,35,40,40,40,40,40,40,40,40,40,35,35,35,35,35,35,35,50,50,50,60,60,37,37,37,37,37,37,37,37,37,37,37,37,37,37,37,37,37,38,37,37,37,37,37,37,38,38,38,38,38,38,37,37,37,37,37,37,37,37,37,37,37,37,37,37,37,36,36,36,36,36,36,36,36,36,36,36,36,36,36,37,36,39,39,39,39,39,39,39,39,39,39,39,39,39,39,39,40,40,40,40,40,40,40,40,40,40,40,40,40,40,41,41,41,41,41,41,41,41,41,41,41,41,41,41,41,36,36,36,36,36,36,36,36,36,36,36,36,36,36,37,37,37,37,37,37,37,37,37,37,37,37,37,37,37,35,36,36,36,36,36,50,55,0,0,0,0,0,0,0
0,0,0,0,0,0,0,0,0,0,0,2,0,1,2,6,7,8,9,9,9,12,12,14,14,22,23,22,23,23,27,27,27,27,27,28,29,30,30,30,34,34,34,35,35,35,35,35,35,35,35,35,35,35,35,35,35,35,35,35,35,35,35,35,35,35,35,30,30,30,30,30,30,30,30,30,30,30,30,30,30,30,30,30,30,30,30,30,30,30,30,30,30,30,30,30,30,30,30,30,30,30,30,30,30,30,30,30,30,30,30,30,30,30,30,30,30,30,30,30,30,30,35,35,35,34,34,34,34,34,34,33,34,34,34,34,34,34,34,34,34,34,34,34,34,34,34,34,34,34,34,34,34,34,34,34,34,34,34,34,34,34,33,33,33,33,33,33,33,33,33,33,33,33,33,33,33,33,30,30,30,30,30,30,35,35,35,35,32,32,33,32,32,35,35,35,35,35,35,35,35,35,35,35,35,35,35,35,36,36,36,36,36,36,36,36,36,36,36,36,36,36,36,36,36,36,36,36,36,36,35,35,35,35,35,35,35,30,30,30,30,30,30,30,30,30,30,30,30,30,30,30,30,30,30,30,30,30,35,35,35,35,34,34,34,34,34,34,34,34,34,34,34,34,34,34,34,34,34,34,34,34,35,35,35,35,35,40,40,40,40,40,40,35,35,35,35,35,35,35,35,50,50,60,60,37,37,37,37,37,37,37,37,37,37,37,37,37,37,37,37,37,37,37,37,37,37,37,37,38,38,38,38,38,37,37,37,37,37,37,37,37,37,37,37,37,37,37,37,37,36,36,36,36,36,36,36,36,36,36,36,36,36,36,36,36,35,35,35,35,35,35,35,39,39,39,39,39,39,39,39,40,40,40,40,40,40,40,40,40,40,40,40,40,41,41,41,41,41,41,41,41,41,41,41,41,41,41,37,36,36,36,36,36,36,36,36,36,36,36,36,36,36,36,37,37,37,37,37,37,37,37,37,37,37,37,37,37,35,35,36,36,36,36,36,50,55,0,0,0,0,0,0,0
0,0,0,0,0,0,0,0,0,0,0,2,0,1,2,6,7,8,9,9,9,12,12,14,22,22,23,23,23,23,27,27,27,29,29,29,29,30,31,32,33,34,34,34,35,35,35,35,35,35,35,35,35,35,35,35,35,35,35,35,35,35,35,35,35,35,35,30,30,30,30,30,30,30,30,30,30,30,30,30,35,35,35,30,30,30,30,30,30,30,30,30,30,30,30,30,30,30,30,30,30,30,30,30,30,30,30,30,30,30,30,30,30,30,30,30,30,30,30,30,30,30,34,34,34,34,34,34,34,34,34,33,34,34,34,34,34,34,34,34,34,34,34,34,34,34,34,34,34,34,34,34,34,34,34,34,34,34,34,34,34,34,33,33,33,33,33,33,33,33,33,33,33,33,33,33,33,30,30,30,30,30,30,30,35,30,30,30,30,32,32,30,30,30,30,30,35,35,35,35,35,35,35,35,35,35,35,35,36,36,36,36,36,36,36,36,36,36,36,36,36,36,36,36,36,36,36,36,36,36,36,35,35,35,35,35,35,30,30,30,30,30,30,30,30,30,30,30,30,30,31,30,30,25,25,30,30,30,35,35,35,34,34,34,34,34,34,34,34,34,34,34,34,34,34,34,34,34,34,34,34,34,35,35,35,35,35,40,40,40,40,40,40,35,35,35,35,35,35,35,35,35,35,37,37,37,37,37,37,37,37,37,37,37,37,37,37,37,37,37,37,37,37,37,37,37,37,37,37,37,37,38,38,38,37,37,37,37,37,37,37,37,37,37,37,37,37,37,37,37,36,36,36,36,36,36,36,36,36,36,36,36,36,36,36,36,35,35,35,35,35,35,35,35,35,39,39,39,39,39,39,40,40,40,40,40,40,40,40,40,40,40,40,40,41,41,41,41,41,41,41,41,41,41,41,41,41,36,37,36,36,36,36,36,36,36,36,36,36,36,36,36,36,36,37,37,37,37,37,37,37,37,37,37,37,37,37,37,35,35,36,36,36,36,50,50,50,0,0,0,0,0,0,0
0,0,0,0,0,0,0,0,0,2,2,2,0,2,2,6,7,8,9,12,13,21,22,23,23,23,23,23,23,23,23,23,23,28,28,28,28,28,29,32,33,33,33,34,35,35,35,35,35,35,35,35,35,35,35,35,35,35,35,35,35,35,35,35,35,35,35,30,30,30,30,30,30,30,30,30,30,30,30,35,35,35,35,35,30,30,30,30,30,30,30,30,30,30,30,30,30,30,30,30,30,30,30,30,30,30,30,30,30,30,30,30,30,30,30,30,30,30,30,30,30,30,30,30,35,34,34,34,34,34,34,33,33,33,34,34,34,34,34,34,34,34,34,34,34,34,34,34,34,34,34,34,34,34,34,34,34,34,34,34,34,33,33,33,33,33,33,33,33,33,33,33,33,33,33,35,35,30,30,30,30,30,30,35,35,30,30,30,30,30,30,30,30,30,30,30,35,35,35,35,35,35,35,35,35,35,35,35,36,36,36,36,36,36,36,36,36,36,36,36,36,36,36,36,36,36,36,36,36,36,36,35,35,35,35,35,35,30,30,30,30,30,30,30,30,30,30,30,31,31,31,31,30,30,30,30,30,30,35,35,35,35,34,34,34,34,34,34,34,34,34,34,34,34,34,34,34,34,34,34,34,34,35,35,35,35,35,35,35,35,35,35,35,35,35,35,35,35,35,35,35,35,35,37,37,37,37,37,37,37,37,37,37,37,37,37,37,37,37,37,37,37,37,37,37,37,37,37,37,37,37,37,38,38,37,37,37,37,37,37,37,37,37,37,37,37,37,36,36,36,36,36,36,36,36,36,36,36,36,36,36,36,36,36,35,35,35,35,35,35,35,35,35,35,35,35,35,39,39,35,35,40,40,40,40,40,40,40,40,40,40,40,40,40,40,40,40,40,41,41,41,41,41,41,41,41,41,37,37,36,36,36,36,36,36,36,36,36,36,36,36,36,36,36,37,37,37,37,37,37,37,37,36,37,37,37,37,37,35,35,36,36,36,36,50,50,50,0,0,0,0,0,0,0
0,0,0,0,0,0,0,2,2,2,2,2,2,13,14,15,16,17,18,19,20,21,22,23,23,23,23,23,23,23,23,23,23,24,28,28,28,28,29,30,31,33,33,34,35,35,35,35,35,35,35,35,35,35,35,35,35,35,35,35,35,35,35,35,35,35,30,30,30,30,30,30,30,30,30,30,30,30,30,35,35,35,35,35,35,30,30,30,30,30,30,30,30,30,30,30,30,30,30,30,30,30,30,30,30,30,30,30,30,30,30,30,30,30,30,30,30,30,30,30,30,30,30,30,30,30,33,33,33,33,33,33,33,33,34,34,34,34,34,34,34,34,34,34,34,34,34,34,34,34,34,34,34,34,34,34,34,34,34,34,34,33,33,33,33,33,33,33,33,33,33,33,33,35,35,35,35,35,30,30,30,30,30,35,35,30,30,30,30,30,30,30,30,30,30,30,35,35,35,35,35,35,35,35,35,35,36,35,36,36,36,36,36,36,36,36,36,36,36,36,36,36,36,36,36,36,36,36,36,36,35,35,35,35,35,35,35,35,30,30,30,30,30,30,30,30,30,30,30,30,30,30,30,30,30,30,30,30,35,35,35,35,34,34,34,34,34,34,34,34,34,34,34,34,34,34,34,34,34,34,34,34,35,35,35,35,35,35,35,35,35,35,35,35,35,35,35,35,35,35,35,35,34,34,37,37,37,37,37,37,37,37,37,37,37,37,37,37,37,37,37,37,37,37,37,37,37,37,37,37,37,37,37,37,37,37,37,37,37,37,37,37,37,37,37,37,37,36,36,36,36,36,36,36,36,36,36,36,36,36,36,36,36,36,35,35,35,35,35,35,35,35,35,35,35,35,35,35,35,35,35,40,40,40,40,40,40,40,40,40,40,40,40,40,40,40,40,40,41,41,41,41,41,41,41,41,41,37,37,36,36,36,36,36,36,36,36,36,36,36,36,36,36,36,37,36,37,37,37,37,37,37,37,37,37,37,37,37,35,35,36,36,36,36,36,50,0,0,0,0,0,0,0,0
0,0,0,0,0,0,0,2,2,2,2,2,2,13,14,15,16,17,18,19,20,21,22,23,23,23,23,23,23,23,23,23,23,24,28,28,28,28,29,30,31,33,33,34,35,35,35,35,35,35,35,35,35,35,35,35,35,35,35,35,35,35,35,35,35,30,30,30,30,30,30,30,30,30,30,30,30,30,35,35,35,35,35,35,35,30,30,30,30,30,30,30,30,30,30,30,30,30,30,30,30,30,30,30,30,30,30,30,30,30,30,30,30,30,30,30,30,30,30,30,30,30,30,30,30,30,35,33,33,33,33,33,33,33,33,33,33,33,33,34,34,34,34,34,34,34,34,34,34,34,34,34,34,34,34,34,34,34,34,34,33,33,33,33,33,33,33,33,33,33,33,34,35,35,35,35,35,30,30,30,30,30,30,35,35,30,30,30,30,30,30,30,30,30,30,30,35,35,35,35,35,35,35,35,35,35,36,36,36,36,36,36,36,36,36,36,36,36,36,36,36,36,36,36,36,36,36,36,36,35,35,35,35,35,35,35,35,35,35,30,35,30,30,30,30,30,30,30,30,30,30,30,30,30,30,30,30,30,35,35,35,35,34,34,34,34,34,34,34,34,34,34,34,34,34,34,34,34,34,34,34,35,35,35,35,35,35,35,35,35,35,35,35,35,35,35,35,35,35,35,35,35,34,34,34,37,37,37,37,37,37,37,37,37,37,37,37,37,37,37,37,37,37,37,37,37,37,37,37,37,37,37,37,37,37,37,37,37,37,37,37,37,37,37,37,37,37,36,36,36,36,36,36,36,36,36,36,36,36,36,36,36,36,35,35,35,35,35,35,35,35,35,35,35,35,35,35,35,35,35,35,40,40,40,40,40,40,40,40,40,40,40,40,40,40,40,40,40,41,41,41,41,41,41,41,41,41,36,37,36,36,36,36,36,36,36,36,36,36,36,36,36,36,36,37,37,37,37,37,37,37,37,37,37,37,37,37,37,35,35,35,35,36,36,36,50,50,0,0,0,0,0,0,0
0,0,0,0,0,0,0,3,3,3,3,3,3,4,14,15,14,17,18,19,20,20,22,23,23,23,23,23,23,23,23,23,23,24,28,28,28,28,29,30,31,33,33,34,35,35,35,35,35,35,35,35,35,35,35,35,35,35,35,35,35,35,35,35,30,30,30,30,30,30,30,30,30,30,30,30,30,30,35,35,35,35,35,35,35,35,30,30,30,30,30,30,30,30,30,30,30,30,30,30,30,30,30,30,30,30,30,30,30,30,30,30,30,30,30,30,30,30,30,30,30,30,30,30,30,30,30,33,33,33,33,33,33,33,33,33,33,33,33,33,34,34,34,34,34,34,34,34,34,34,34,34,34,34,34,34,34,34,34,33,33,33,33,33,33,33,33,33,33,33,33,35,35,35,35,35,35,30,30,35,35,30,30,35,35,30,30,30,30,30,30,30,30,30,30,30,35,35,35,35,35,35,35,35,36,35,36,36,36,36,36,36,36,36,36,36,36,36,36,36,36,36,36,36,36,36,36,36,36,35,35,35,35,35,35,35,35,35,35,35,35,35,30,30,30,30,30,30,30,30,30,30,30,30,30,30,30,30,30,35,35,35,34,34,34,34,34,34,34,34,34,34,34,34,34,34,34,34,34,34,34,35,35,35,35,35,35,35,35,35,35,35,35,35,35,35,35,35,35,35,35,35,34,34,34,37,37,37,37,37,37,37,37,37,37,37,37,37,37,37,37,37,37,37,37,37,37,37,37,37,37,37,37,37,37,37,37,37,37,37,37,37,37,37,37,37,37,37,36,36,36,36,36,36,36,36,36,36,36,36,36,36,36,35,35,35,35,35,35,35,35,35,35,35,35,35,35,35,35,35,35,40,40,40,40,40,40,40,40,40,40,40,40,40,40,40,40,40,41,41,41,41,41,41,41,41,41,36,37,36,36,36,36,36,36,36,36,36,36,36,36,36,36,36,37,37,37,37,37,37,37,37,37,37,37,37,37,37,35,35,35,35,36,36,36,50,50,0,0,0,0,0,0,0
0,0,0,0,0,0,0,3,3,3,1,3,3,3,14,14,14,14,15,19,20,20,20,20,23,23,23,23,23,23,23,23,23,24,24,28,28,28,29,29,30,33,33,34,35,35,35,35,35,40,40,40,40,35,35,35,35,36,36,36,40,45,45,45,30,30,30,30,30,30,30,30,30,30,30,30,30,35,35,35,35,35,35,35,35,35,35,35,35,35,35,35,35,35,35,35,35,35,35,35,35,35,35,30,30,30,30,30,30,30,30,30,30,30,30,30,30,30,30,30,30,30,30,30,30,30,30,33,33,33,33,33,33,33,33,33,33,33,33,33,33,34,34,34,34,34,34,34,34,34,34,34,34,34,34,34,34,34,34,34,33,33,33,33,33,33,33,33,33,33,35,35,35,35,35,35,35,35,35,35,35,35,35,35,35,35,35,30,35,30,30,30,30,30,30,30,35,35,35,35,35,40,35,35,36,36,36,36,36,36,36,36,36,36,36,36,36,36,36,36,36,36,36,36,36,36,36,36,36,36,35,35,35,35,35,35,35,35,35,35,35,35,35,35,30,30,30,30,30,30,30,30,30,30,30,30,30,30,30,30,35,35,34,34,34,34,34,34,34,34,34,34,34,34,34,34,34,34,34,34,34,35,35,35,35,35,35,35,35,35,35,35,35,35,35,35,35,35,35,35,40,40,34,34,34,23,37,37,37,37,37,37,37,37,37,37,37,37,37,37,37,37,37,37,37,37,37,37,37,37,37,37,37,37,37,37,37,37,37,37,37,37,37,37,37,37,37,36,36,36,36,36,36,36,36,36,36,36,36,36,36,36,35,35,35,35,35,35,35,35,35,35,35,35,35,35,35,35,35,35,35,35,40,40,40,40,40,40,40,40,40,40,40,40,40,40,40,40,40,40,40,41,40,40,40,41,37,37,37,36,36,36,36,36,36,36,36,36,36,36,36,36,36,36,37,36,37,37,37,37,35,37,37,37,37,37,37,37,35,35,36,37,37,36,36,36,50,0,0,0,0,0,0,0
0,0,0,0,0,0,0,3,3,4,4,3,3,3,14,14,14,15,18,19,20,20,20,23,23,23,23,23,23,23,23,23,23,24,24,28,28,28,29,30,30,33,33,34,35,35,35,35,39,40,40,40,40,40,36,36,36,36,36,36,37,36,45,30,30,30,30,30,30,30,30,30,30,30,30,30,30,35,35,35,35,35,35,35,35,35,35,35,35,35,35,35,35,35,35,35,35,35,35,35,35,35,35,30,30,30,30,30,30,30,30,30,30,30,30,30,30,30,30,30,30,30,30,30,30,30,30,33,33,33,33,33,33,33,33,33,33,33,33,33,33,33,33,34,34,34,34,34,34,34,34,34,34,34,34,34,34,34,34,34,33,33,33,33,33,33,33,33,33,35,35,35,35,35,35,35,35,35,35,35,35,35,35,35,35,35,30,30,30,30,30,30,30,30,30,30,35,35,35,35,40,40,35,35,35,35,36,36,36,36,36,36,36,36,36,36,36,36,36,36,36,36,36,36,36,36,36,36,36,36,35,35,35,35,35,35,35,35,35,35,35,35,35,35,35,36,36,30,30,30,41,30,30,30,30,30,30,30,30,30,30,30,34,34,34,34,34,34,34,34,34,34,34,34,34,34,34,34,34,34,34,35,35,35,35,35,35,35,35,35,35,35,35,35,35,35,35,35,35,35,35,40,23,34,23,23,23,37,37,37,37,37,37,37,37,37,37,37,37,37,37,37,37,37,37,37,37,37,37,37,37,37,37,37,37,37,37,37,37,37,37,37,37,37,37,37,36,36,36,36,36,36,36,36,36,36,36,36,36,36,36,36,35,35,35,35,35,35,35,35,35,35,35,35,35,35,35,35,35,35,35,35,35,35,35,35,35,35,40,40,40,40,40,40,40,40,40,40,40,40,40,40,40,40,40,37,37,36,36,36,36,36,36,36,36,36,36,36,36,36,36,36,36,36,37,37,37,37,37,37,37,37,37,37,37,37,37,37,35,35,37,37,37,36,36,36,50,0,0,0,0,0,0,0
0,0,0,0,0,0,0,3,3,3,4,3,2,3,14,15,14,17,18,19,20,20,20,23,23,23,23,23,23,23,23,23,23,24,24,28,28,28,28,30,31,33,33,34,35,35,35,35,39,40,40,40,40,40,36,36,36,36,36,36,37,37,36,30,30,30,30,30,30,30,30,30,30,30,30,30,35,35,35,35,35,35,35,35,35,35,35,35,35,35,35,35,35,35,35,35,35,35,35,35,35,35,35,30,30,30,30,30,30,30,30,30,30,30,30,30,30,30,30,30,30,30,30,30,30,30,30,30,33,33,33,33,33,33,33,33,33,33,33,33,33,33,33,33,34,34,34,34,34,34,34,34,34,34,34,34,34,34,34,34,33,33,33,33,33,33,33,33,35,35,35,35,35,35,35,35,35,35,35,35,35,35,35,35,35,35,30,30,30,30,30,30,30,30,30,30,35,35,35,40,40,40,35,35,35,36,36,36,36,36,36,36,36,36,36,36,36,36,36,36,36,36,36,36,36,36,36,36,36,36,36,35,35,35,35,35,35,35,35,35,35,35,35,35,36,36,36,36,30,30,41,30,30,30,30,30,30,30,30,30,30,30,34,34,34,34,34,34,34,34,34,34,34,34,34,34,34,34,34,34,35,35,35,35,35,35,35,35,35,35,35,35,35,35,35,35,35,35,35,35,35,35,34,35,35,23,35,23,37,37,37,37,37,37,37,37,37,37,37,37,37,37,37,37,37,37,37,37,37,37,37,37,37,37,37,37,37,37,37,37,37,37,37,37,37,37,36,36,36,36,36,36,36,36,36,36,36,36,36,35,35,35,35,35,35,35,35,35,35,35,35,35,35,35,35,35,35,35,35,35,35,35,35,35,35,35,35,35,35,35,35,35,35,35,30,40,40,40,40,40,40,30,30,31,37,37,37,37,37,36,36,36,36,36,36,36,36,36,36,36,36,36,36,37,37,37,37,37,37,37,35,35,35,37,37,37,37,37,35,35,37,37,37,35,36,36,36,0,0,0,0,0,0,0
0,0,0,0,0,0,0,3,3,3,3,3,2,3,14,15,16,17,18,19,20,20,20,20,20,23,23,23,23,23,23,23,23,24,13,28,28,28,28,28,31,33,33,34,35,35,35,35,39,40,40,40,40,35,36,36,36,36,36,36,37,37,36,36,36,36,30,30,30,30,30,30,36,36,30,35,35,35,35,35,35,35,35,35,35,35,35,35,35,35,35,35,35,35,35,35,35,35,35,35,35,35,35,35,30,30,30,30,30,30,30,30,30,30,30,30,30,30,30,30,30,30,30,30,30,30,30,30,30,33,33,33,33,33,33,33,33,33,33,33,33,33,33,33,34,34,34,34,34,34,34,34,34,34,34,34,34,34,34,34,33,33,33,33,33,33,34,35,35,35,35,35,35,35,35,30,30,30,30,30,35,35,35,35,35,30,30,30,30,30,30,30,30,30,30,30,35,35,40,40,40,40,35,35,35,36,36,36,36,36,36,36,36,36,36,36,36,36,36,36,36,36,36,36,36,36,36,36,36,36,36,36,35,36,36,35,35,35,35,35,35,35,35,36,36,36,36,36,30,30,30,30,30,31,30,30,30,30,31,31,30,30,34,34,34,34,34,34,34,34,34,34,34,34,34,34,34,34,34,34,34,35,30,35,35,35,35,35,35,35,35,35,35,35,35,35,35,35,35,35,35,35,23,35,35,23,23,23,23,37,37,37,37,37,37,37,37,37,37,37,37,37,37,37,37,37,37,37,37,37,37,37,37,37,37,37,37,37,37,30,30,37,30,37,36,36,36,36,36,36,35,36,36,36,36,36,36,36,36,35,35,35,35,35,35,35,35,35,35,35,35,35,35,35,35,35,35,35,35,35,35,35,35,35,35,35,35,35,35,35,35,35,35,36,37,37,30,30,30,30,30,30,30,30,30,37,37,37,35,35,36,36,36,36,36,36,36,36,37,36,36,36,36,37,37,35,35,35,35,35,35,35,35,35,35,35,35,35,35,35,35,37,37,35,35,35,36,0,0,0,0,0,0,0
0,0,0,0,0,0,0,3,3,62,62,62,62,62,59,59,14,15,18,19,19,19,20,20,20,20,23,23,23,23,23,23,13,24,13,13,28,28,28,29,33,33,33,34,35,35,35,35,39,40,40,40,35,35,36,36,36,36,36,36,36,36,36,36,36,36,36,36,36,36,36,36,36,36,36,36,36,35,35,35,35,35,35,35,35,35,35,35,35,35,35,35,35,35,35,35,35,35,35,35,35,35,35,35,30,30,30,30,30,30,30,30,30,30,30,30,30,30,30,30,35,35,30,30,30,30,30,30,30,35,33,33,33,33,33,33,33,33,33,33,33,33,33,33,34,34,34,34,34,34,34,34,34,34,34,34,34,34,34,34,33,33,33,33,33,33,34,35,35,35,35,35,35,30,30,30,30,30,30,30,30,35,35,35,30,30,30,30,30,30,30,30,30,30,30,30,35,35,40,40,40,40,35,35,36,36,36,36,36,36,36,36,36,36,36,36,36,36,36,36,36,36,36,36,36,36,36,36,36,36,36,36,36,36,36,36,36,36,35,35,35,35,36,36,36,36,36,36,39,31,31,30,30,31,31,31,30,31,31,32,32,30,34,34,34,34,34,35,34,34,34,34,34,34,34,34,34,34,34,34,35,35,30,35,35,35,35,35,35,35,35,35,35,35,35,35,35,35,35,35,35,35,35,35,35,23,35,23,23,37,37,37,37,37,37,37,37,37,37,37,37,37,37,37,37,37,37,37,37,37,37,37,30,37,29,37,30,30,30,30,30,30,30,30,30,30,36,36,36,36,35,35,36,36,36,36,36,36,35,35,35,35,35,35,35,35,35,35,35,35,35,35,35,35,35,35,35,35,35,35,35,35,35,35,35,35,35,35,35,35,35,35,35,35,30,30,30,30,30,30,30,30,30,30,30,30,30,30,31,31,30,35,35,37,37,37,37,37,37,35,34,35,35,35,37,35,35,35,35,35,35,35,35,35,35,35,35,35,35,35,35,35,35,35,35,35,35,0,0,0,0,0,0,0
0,0,0,0,0,0,0,3,62,62,62,62,62,62,62,62,62,15,15,19,19,19,20,20,20,23,23,23,23,23,23,23,13,13,13,13,13,12,12,12,13,33,33,34,35,35,35,35,39,40,35,35,35,35,35,35,36,36,36,36,37,36,36,36,36,36,36,36,36,36,36,36,36,36,36,36,36,36,35,35,35,35,35,35,35,35,35,35,35,35,35,35,35,35,35,35,35,35,35,35,35,35,35,35,30,30,30,35,30,30,35,35,30,30,30,30,30,30,30,35,35,35,35,30,30,30,30,35,35,35,35,33,33,33,33,33,33,33,33,33,33,33,33,33,33,34,34,34,34,34,34,34,34,34,34,34,34,34,34,34,34,34,33,33,33,33,34,35,30,30,30,30,30,30,30,30,30,30,30,30,30,30,35,30,30,30,30,30,30,30,30,30,30,30,30,30,35,35,40,40,40,40,40,40,40,36,36,36,36,36,36,36,36,36,36,36,36,36,36,36,36,36,36,36,36,36,36,36,36,36,36,36,36,36,36,36,36,36,36,36,36,36,36,36,36,36,36,36,39,30,31,30,30,31,31,31,30,31,31,32,32,30,33,34,34,34,34,35,34,34,34,34,34,34,34,34,34,34,34,34,34,35,30,35,35,35,35,35,35,35,35,35,35,35,35,35,35,35,35,35,35,35,35,35,35,35,35,35,35,37,37,37,37,37,37,37,37,37,37,37,37,37,37,60,60,60,37,37,29,29,37,29,30,30,30,30,30,30,30,30,30,30,29,29,30,30,31,35,36,36,35,35,36,36,36,36,36,36,35,35,35,35,35,35,35,35,35,35,35,35,35,35,35,35,35,35,35,35,35,35,35,35,35,35,35,35,35,35,35,29,29,29,30,30,30,30,30,30,30,30,30,30,30,30,30,31,30,29,31,31,33,31,31,30,30,30,35,37,35,35,34,35,35,35,35,35,35,35,35,35,35,35,35,35,35,35,35,35,35,35,35,35,35,35,35,35,35,0,0,0,0,0,0,0
0,0,0,0,0,0,0,3,60,62,62,62,62,62,59,59,62,62,62,62,7,8,8,8,8,8,8,12,13,23,23,23,23,13,13,13,28,28,29,29,22,33,33,34,35,35,35,38,38,35,35,35,35,35,37,37,37,37,36,36,37,37,37,36,37,37,36,36,36,36,36,36,36,36,36,36,36,36,35,35,35,35,35,35,35,35,35,35,35,35,35,35,35,35,35,35,35,35,35,35,35,35,35,35,30,30,30,35,30,30,30,30,30,30,30,30,30,30,30,30,35,35,30,30,30,30,30,35,35,35,35,35,33,33,33,33,33,33,33,33,33,33,33,33,33,33,34,34,34,34,34,34,34,34,34,34,34,34,34,34,33,33,33,33,33,33,30,30,30,30,30,30,30,30,30,30,30,30,30,30,30,35,35,30,30,30,30,30,30,30,30,30,30,30,30,30,35,40,40,40,40,40,40,40,40,36,36,36,36,36,36,36,36,36,36,36,36,36,36,36,36,36,36,36,36,36,36,36,36,36,36,36,36,36,36,36,36,36,36,36,36,36,36,36,36,36,36,36,36,35,31,30,31,31,31,31,31,31,31,32,32,32,32,34,34,34,34,35,34,34,34,34,34,34,34,34,34,34,34,34,34,35,35,35,35,35,35,35,35,35,35,35,35,35,35,35,35,35,35,35,35,35,35,35,35,35,35,35,36,37,37,37,37,37,37,37,37,37,37,37,37,37,37,37,60,37,37,37,29,29,37,29,30,30,30,30,30,30,30,30,30,30,29,29,30,30,30,35,36,36,35,35,36,36,36,36,36,35,35,35,35,35,35,35,35,35,35,35,35,35,35,35,35,35,35,35,35,35,35,35,35,35,35,35,35,35,35,35,35,29,29,29,30,30,30,30,30,30,30,30,30,30,30,30,30,30,30,30,30,33,33,29,35,30,30,31,35,37,35,35,35,35,35,35,38,38,35,35,35,35,35,35,35,35,35,35,35,35,35,35,35,35,35,35,35,30,30,0,0,0,0,0,0,0
0,0,0,0,0,0,0,4,60,62,62,62,62,62,59,60,62,62,8,8,7,8,8,8,8,8,12,12,13,13,23,23,23,24,13,28,28,28,29,29,29,23,23,34,35,35,38,38,38,35,35,35,35,36,37,37,37,37,37,37,37,37,37,36,37,37,36,36,36,36,36,36,36,36,36,36,36,36,35,35,35,35,35,35,35,35,35,35,35,35,35,35,35,35,35,35,35,35,35,35,35,35,35,35,30,30,30,30,30,30,30,30,30,30,30,30,30,30,30,30,30,30,30,30,30,30,30,30,30,35,35,30,33,33,33,33,33,33,33,33,33,33,33,33,33,33,33,33,34,34,34,33,34,34,34,34,34,34,34,33,33,33,33,33,30,30,30,30,30,30,30,30,30,30,30,30,30,30,30,30,35,35,35,30,30,30,30,30,30,30,30,30,30,30,30,30,30,40,40,40,40,40,40,40,40,36,36,36,36,36,36,36,36,36,36,36,36,36,36,36,36,36,36,36,36,36,36,36,36,36,36,36,36,36,36,36,36,36,36,36,36,36,36,36,36,36,36,36,36,35,31,30,31,31,31,31,31,31,31,32,32,32,32,34,34,34,34,33,34,34,34,34,34,34,34,34,34,34,34,34,35,35,35,35,35,35,35,35,35,35,35,35,35,35,35,35,35,35,35,35,35,35,35,35,35,35,35,35,36,37,37,37,37,37,37,37,37,37,37,37,37,37,37,37,60,37,29,29,30,30,30,30,30,30,30,30,30,30,30,30,30,30,30,30,30,30,30,35,35,36,35,35,36,36,36,36,36,35,35,35,35,35,35,35,35,35,35,35,35,35,35,35,35,35,35,35,35,35,35,35,35,35,35,35,35,35,35,35,35,29,29,29,30,30,30,30,30,30,30,30,30,30,30,30,32,32,33,33,33,33,33,33,35,35,33,35,35,34,35,35,35,35,35,35,35,35,35,35,35,35,35,35,35,35,35,35,35,35,35,35,35,35,35,35,40,30,30,0,0,0,0,0,0,0
0,0,0,0,0,0,0,4,60,62,60,62,62,62,62,62,62,10,8,8,8,8,8,8,8,8,12,12,13,20,20,23,23,24,23,28,28,28,29,29,23,23,23,23,35,35,38,38,38,35,35,35,35,35,37,37,37,37,36,36,37,37,37,36,37,36,36,36,36,36,36,36,36,36,36,36,36,36,35,35,35,35,35,35,35,35,35,35,35,35,35,35,35,35,35,35,35,35,35,35,35,35,35,35,30,30,30,30,30,30,30,30,30,30,30,30,30,30,30,30,30,30,30,30,30,30,30,30,30,30,30,30,30,33,33,33,33,33,33,33,33,33,33,33,33,33,33,33,33,33,30,30,30,31,33,33,34,34,34,33,33,33,31,30,30,30,30,30,30,30,30,30,30,30,30,30,30,30,30,30,35,35,30,30,30,30,30,30,30,30,30,30,30,30,30,30,30,40,40,40,40,40,35,35,40,36,36,36,36,36,36,36,36,36,36,36,36,36,36,36,36,36,36,36,36,36,36,36,36,36,36,36,36,36,36,36,36,36,36,36,36,36,36,36,36,36,36,36,36,35,31,31,31,31,31,31,31,31,32,32,32,32,32,32,33,33,34,33,33,34,34,17,17,35,35,33,33,33,33,35,35,35,35,35,35,35,35,35,35,35,35,35,35,35,35,35,35,35,35,35,35,35,35,35,35,35,35,36,36,37,37,37,37,37,37,37,37,37,37,37,37,37,37,37,29,29,29,29,30,30,30,30,30,30,30,30,30,30,30,30,30,30,30,30,30,30,30,32,36,35,35,35,35,36,36,36,36,35,35,35,35,35,35,35,35,35,35,35,35,35,35,35,35,35,35,35,35,35,35,35,35,35,35,35,35,35,35,35,35,29,29,29,32,30,37,37,32,30,29,29,30,30,30,30,32,33,33,33,33,33,33,35,35,35,35,35,35,38,38,35,35,35,35,35,35,35,35,35,35,35,35,35,35,35,35,35,35,35,35,35,35,35,35,35,40,30,30,0,0,0,0,0,0,0
0,0,0,0,0,0,0,60,60,62,61,61,61,61,61,62,62,62,62,8,8,8,8,8,8,8,12,12,13,20,23,23,23,24,13,28,28,28,29,29,23,23,23,23,35,35,38,38,38,38,37,37,35,36,37,37,37,37,36,36,36,36,36,36,36,36,36,36,36,36,36,36,36,36,36,36,36,36,36,35,35,35,35,35,35,35,35,35,35,35,35,35,35,35,35,35,35,35,35,35,35,35,35,35,30,30,30,35,30,30,30,30,30,30,30,30,30,30,30,30,30,30,30,30,30,30,30,30,30,30,30,30,30,31,33,33,33,33,33,33,33,33,33,33,33,33,33,33,33,30,30,30,30,31,31,31,31,31,31,31,31,31,31,30,30,30,30,30,30,30,30,30,30,30,30,30,30,30,30,30,35,35,30,30,30,30,30,30,30,30,30,30,30,30,30,30,30,40,40,40,40,40,35,35,36,36,36,36,36,36,36,36,36,36,36,36,36,36,36,36,36,36,36,36,36,36,36,36,36,36,36,36,36,36,36,36,36,36,36,36,36,36,36,36,36,36,35,35,35,35,35,31,31,31,31,31,31,31,32,32,32,32,32,32,33,33,33,33,33,10,10,17,17,18,18,18,33,33,33,35,35,35,35,35,35,35,35,35,35,35,35,35,35,35,35,35,35,35,35,35,35,35,35,35,35,35,35,36,36,37,37,37,37,37,37,37,37,37,37,37,37,37,37,37,29,29,29,29,30,30,30,30,30,30,30,30,30,30,30,30,30,30,30,30,30,30,30,35,36,36,35,35,35,36,36,36,36,35,35,35,35,35,35,35,35,35,35,35,35,35,35,35,35,35,35,35,35,35,35,35,35,35,35,35,35,35,35,35,35,29,29,29,18,30,30,37,37,30,37,37,38,38,40,40,40,38,39,40,47,47,54,55,55,55,55,55,55,54,55,55,55,35,35,35,35,35,35,35,35,35,35,35,35,35,35,35,35,35,35,35,35,35,40,40,40,30,30,0,0,0,0,0,0,0
0,0,0,0,0,0,0,60,60,60,60,61,61,62,59,62,62,62,62,39,62,62,62,8,8,54,54,54,54,20,23,23,23,24,13,28,28,28,29,29,17,22,23,23,35,38,38,38,38,38,37,37,35,36,37,37,35,37,36,36,36,36,36,36,36,36,36,36,36,36,36,36,36,36,36,36,36,36,36,35,35,35,35,35,35,35,35,35,35,35,35,35,35,35,35,35,35,35,35,35,35,35,35,35,30,30,30,35,30,30,30,30,30,35,35,35,35,35,35,35,35,35,30,30,30,35,35,35,30,30,30,30,30,30,31,31,33,33,33,33,33,33,31,31,33,31,33,33,30,30,30,30,30,31,31,31,31,31,31,31,31,31,30,30,30,30,30,30,30,30,30,30,30,30,30,30,30,30,35,35,35,35,35,35,35,35,35,35,35,30,33,30,30,30,30,30,30,35,35,35,35,35,35,35,36,36,36,36,36,36,36,36,36,36,36,36,36,36,36,36,36,36,36,36,36,36,36,36,36,36,36,36,36,36,36,36,36,36,36,36,36,36,36,36,36,35,35,35,35,35,35,32,31,31,31,31,31,31,32,32,32,31,32,10,10,10,10,10,10,10,10,17,17,18,18,18,33,33,33,35,35,35,35,35,35,35,35,35,35,35,35,35,35,35,35,35,35,35,35,35,35,35,35,35,35,35,35,36,36,37,37,37,37,37,37,37,37,37,37,37,37,37,37,14,29,29,29,30,30,30,30,30,30,30,30,30,30,30,30,30,30,30,30,30,30,30,30,31,35,35,35,35,35,36,36,36,36,35,35,35,35,35,35,35,35,35,35,35,35,35,35,35,35,35,35,35,35,35,35,35,35,35,35,35,35,35,35,35,35,29,29,29,18,18,30,37,37,37,37,38,38,38,38,38,38,38,38,37,38,51,38,38,38,55,55,55,38,54,54,55,55,41,41,46,35,35,35,35,35,35,35,35,35,35,35,35,35,35,35,35,35,35,40,35,40,30,30,0,0,0,0,0,0,0
0,0,0,0,0,0,0,60,60,60,61,61,61,62,61,62,62,62,62,62,62,62,62,62,56,56,54,54,54,54,54,23,23,24,28,28,28,28,29,29,17,22,23,23,35,35,38,38,38,38,37,37,35,35,37,35,35,37,36,36,36,36,36,36,36,36,36,36,36,36,36,36,36,36,36,36,36,36,36,35,35,35,35,35,35,35,35,35,35,35,35,35,35,35,35,35,35,35,35,35,35,35,35,35,30,30,30,35,30,30,30,30,30,30,35,35,35,35,35,35,35,35,30,30,30,30,30,30,30,30,30,30,30,30,30,31,31,33,31,33,33,33,33,33,33,31,30,33,30,30,30,30,30,30,30,30,31,31,31,30,30,30,30,30,30,30,30,30,30,30,30,30,30,30,30,30,35,35,35,35,35,35,35,35,35,35,35,35,35,30,30,30,30,30,30,30,30,35,35,35,35,40,35,35,35,36,36,36,36,36,36,36,36,36,36,36,36,36,36,36,36,36,36,36,37,37,36,36,36,36,36,36,36,36,36,36,36,36,36,36,36,36,36,36,36,35,35,35,35,35,35,32,32,31,32,32,32,32,32,32,32,31,32,10,10,10,10,10,10,10,10,17,17,18,18,18,18,18,18,18,35,35,35,35,35,35,35,35,35,35,35,35,35,35,35,35,35,35,35,35,35,35,35,35,35,35,36,36,36,37,37,37,37,37,37,37,37,37,37,37,37,37,37,37,29,30,30,30,30,30,30,30,30,30,30,30,30,30,30,30,30,30,30,30,30,30,30,35,35,35,35,35,35,36,36,36,35,35,35,35,35,35,35,35,35,35,35,35,35,35,35,35,35,35,35,35,35,35,35,35,35,35,35,35,35,35,35,35,35,29,29,29,30,30,30,20,30,37,37,37,38,23,38,23,33,33,33,35,35,35,35,35,35,35,34,35,35,54,35,35,35,35,35,35,35,35,35,35,35,35,35,35,35,35,35,35,35,35,35,35,35,35,40,40,40,40,30,0,0,0,0,0,0,0
0,0,0,0,0,0,0,60,60,60,60,60,61,61,61,62,62,62,62,62,62,62,62,47,56,54,54,54,54,54,54,23,59,24,28,28,28,28,29,29,17,22,23,23,23,38,38,38,38,38,37,37,37,36,37,35,36,37,36,36,36,35,36,36,36,36,36,36,36,36,36,36,36,36,36,36,36,36,35,35,35,35,35,35,35,35,35,35,35,35,35,35,35,35,35,35,35,35,35,35,35,35,35,35,35,35,35,35,30,30,30,30,30,30,35,35,35,35,35,35,35,35,30,30,30,30,30,30,30,30,30,30,30,30,30,31,31,31,31,31,31,31,31,30,30,31,30,30,30,30,30,30,30,30,30,30,30,30,30,30,30,30,30,30,30,30,30,30,30,30,30,30,30,30,30,30,35,35,35,35,35,35,35,35,35,35,35,35,35,35,33,33,30,30,30,30,30,35,35,35,35,40,35,35,35,36,36,36,36,36,36,36,36,36,36,36,36,36,36,36,36,36,36,36,37,37,36,36,36,36,36,36,36,36,36,36,36,36,36,36,36,36,36,36,36,35,35,35,35,35,35,35,32,32,32,32,32,32,32,32,32,30,31,10,10,10,10,10,10,10,10,10,18,18,18,18,18,18,18,18,18,35,35,35,35,35,35,35,35,35,35,35,35,35,35,35,35,35,35,35,35,35,35,35,35,35,36,36,36,37,37,37,37,37,37,37,37,37,37,37,37,37,37,29,30,30,30,30,30,30,30,30,30,30,30,30,30,30,30,30,30,30,30,30,30,30,30,35,35,35,35,35,35,35,35,35,35,35,35,35,35,35,35,35,35,35,35,35,35,35,35,35,35,35,35,35,35,35,35,35,35,35,35,35,35,35,35,35,30,30,29,30,30,20,30,20,22,30,21,22,38,23,22,23,25,25,33,35,35,35,35,37,37,34,34,35,35,37,34,35,35,41,41,35,35,35,35,35,35,35,35,35,35,35,35,35,35,35,35,35,35,35,35,40,40,40,40,0,0,0,0,0,0,0
0,0,0,0,0,0,0,60,60,60,60,60,61,61,61,62,62,62,62,62,47,48,48,47,47,56,54,54,54,56,57,59,59,60,28,28,28,28,29,29,18,22,23,23,23,38,38,38,38,38,37,37,37,36,37,37,37,37,36,36,36,35,36,36,36,36,36,36,36,36,36,36,36,36,36,35,35,35,35,35,35,35,35,35,35,35,35,35,35,35,35,35,35,35,35,35,35,35,35,35,35,35,35,35,35,30,30,35,30,30,30,30,30,30,30,35,35,35,35,35,35,35,30,30,30,35,30,30,30,30,30,30,30,30,30,30,30,30,31,31,31,30,30,30,30,30,30,30,30,30,30,30,30,30,30,30,30,30,30,30,30,30,30,30,30,30,30,30,30,30,30,30,30,30,30,35,35,35,35,35,35,35,35,35,35,35,35,35,35,33,33,33,30,30,30,30,30,30,35,35,35,35,35,35,35,36,36,36,36,36,36,36,36,36,36,36,36,36,36,36,36,37,37,37,37,37,37,37,37,37,36,37,37,37,37,37,37,37,36,36,36,36,36,36,35,35,35,35,35,35,35,35,30,31,32,32,32,32,32,32,32,32,32,10,10,10,10,10,10,10,10,17,18,18,18,18,18,18,18,18,35,35,35,35,35,35,35,35,35,35,35,35,35,35,35,35,35,35,35,35,35,35,35,35,35,35,35,35,36,36,36,36,36,37,37,37,37,37,37,37,37,37,37,37,30,30,30,30,30,30,30,30,30,30,30,30,30,30,30,30,30,30,29,30,30,30,35,35,35,35,35,35,35,35,35,35,35,35,35,35,35,35,35,35,35,35,35,35,35,35,35,35,35,35,35,35,35,35,35,35,35,35,35,35,35,35,35,20,20,30,30,30,20,20,20,20,20,21,21,21,21,21,22,23,25,25,25,35,35,35,35,35,35,35,35,35,35,35,35,35,35,35,35,35,35,35,35,35,35,35,35,35,35,35,35,35,35,35,35,35,35,35,35,40,40,40,40,0,0,0,0,0,0,0
0,0,0,0,0,0,0,60,60,60,61,60,61,61,59,60,61,62,62,62,61,62,61,61,60,56,54,54,55,60,60,59,60,28,28,28,28,28,29,29,22,22,23,23,35,38,38,38,38,38,37,37,37,36,37,37,37,37,36,36,35,35,35,36,36,36,36,36,35,35,35,35,35,35,35,35,35,35,35,35,35,35,35,35,35,35,35,35,35,35,35,35,35,35,35,35,35,35,35,35,35,35,35,35,35,35,35,35,30,30,30,30,30,30,30,30,30,30,35,35,35,35,35,35,35,35,35,35,35,35,35,35,35,35,35,35,35,30,30,30,30,30,30,30,30,30,30,30,30,30,30,30,30,30,30,30,30,30,30,30,30,30,30,30,30,30,30,30,30,30,30,30,30,30,30,35,35,35,35,35,35,35,35,35,35,35,35,35,35,35,33,33,30,30,30,30,30,30,35,35,35,35,35,35,35,36,36,36,36,36,36,36,36,36,36,36,36,36,36,36,36,37,37,37,37,37,37,37,37,37,37,37,37,37,37,37,37,37,37,36,36,36,36,36,35,35,35,35,35,35,35,35,30,31,32,32,32,32,32,32,32,32,32,10,10,10,10,10,16,16,16,17,17,17,18,18,18,18,18,35,35,35,35,35,35,35,35,35,35,35,35,35,35,35,35,35,35,35,35,35,35,35,35,35,35,35,35,35,36,36,36,36,36,37,37,37,37,37,37,37,37,37,37,37,30,30,30,30,30,30,30,30,30,30,30,30,30,30,30,30,30,30,30,30,30,30,35,35,35,35,35,35,35,35,35,35,35,35,35,35,35,35,35,35,35,35,35,35,35,35,35,35,35,35,35,35,35,35,35,35,35,35,35,35,35,35,35,20,20,20,30,30,20,20,20,20,20,21,21,21,21,21,22,23,24,25,25,25,24,25,25,35,31,35,34,35,35,35,35,35,35,35,35,35,35,35,35,35,35,35,35,35,35,35,35,35,35,35,35,35,35,35,40,40,40,40,40,0,0,0,0,0,0,0
0,0,0,0,0,0,0,60,60,60,61,58,61,61,59,62,61,62,61,61,61,61,61,61,60,61,60,61,61,20,20,23,23,28,28,28,28,28,29,29,29,22,23,23,35,38,38,38,38,38,37,37,35,36,37,35,35,35,35,35,35,35,35,36,36,35,36,35,35,35,35,35,35,35,35,35,35,35,35,35,35,35,35,35,35,35,35,35,35,35,35,35,35,35,35,35,35,35,35,35,35,35,35,35,35,30,30,30,30,30,30,30,30,30,30,30,30,30,30,35,35,35,35,35,35,35,35,35,35,35,35,35,35,35,35,35,35,35,30,30,30,30,30,30,30,30,30,30,30,30,30,30,30,30,30,30,30,30,30,30,30,30,30,30,30,30,30,30,30,30,30,30,30,30,35,35,35,35,35,35,35,35,35,35,35,35,35,35,35,35,35,30,30,30,30,30,30,30,35,35,35,35,35,35,35,36,36,36,36,36,36,36,36,36,36,36,36,36,36,36,37,37,37,37,37,37,37,37,37,37,37,37,37,37,37,37,37,37,37,37,36,36,36,35,35,35,35,35,35,35,35,35,35,31,31,32,32,32,32,32,32,32,32,32,35,35,35,35,16,16,16,16,27,18,27,27,27,27,35,35,35,35,35,35,35,35,35,35,35,35,35,35,35,35,35,35,35,35,35,35,35,35,35,35,35,35,35,36,36,36,36,36,36,36,37,37,37,37,37,37,37,37,37,37,30,31,32,30,30,30,30,30,30,30,30,30,30,30,30,30,30,30,30,35,35,35,35,35,35,35,35,35,35,35,35,35,35,35,35,35,35,35,35,35,35,35,35,35,35,35,35,35,35,35,35,35,35,35,35,35,35,35,35,35,35,35,35,35,20,20,20,30,20,20,20,20,20,21,21,21,21,21,21,25,25,25,25,25,25,25,35,35,35,35,35,35,35,35,35,35,35,35,35,35,35,35,35,35,35,35,35,35,35,35,35,35,35,35,40,35,35,35,40,40,40,40,40,0,0,0,0,0,0,0
0,0,0,0,0,0,0,60,60,60,61,61,61,61,59,62,61,62,61,61,61,61,61,61,62,61,61,61,62,61,61,23,23,28,28,28,28,28,29,29,29,22,23,23,35,35,38,38,38,38,35,35,35,35,35,35,35,35,35,35,35,35,35,35,35,35,35,35,35,35,35,35,35,35,35,35,35,35,35,35,35,35,35,35,35,35,35,35,35,35,35,35,35,35,35,35,35,35,35,35,35,35,35,35,35,35,35,35,30,30,30,30,30,30,30,30,30,30,30,30,35,30,35,35,35,35,35,35,35,35,35,35,35,35,35,35,35,35,30,30,30,30,30,30,30,30,30,30,30,30,30,30,30,30,30,30,30,30,30,30,30,30,30,30,30,30,30,30,30,30,30,30,30,30,35,35,35,35,35,35,35,35,35,35,35,35,35,35,35,35,35,30,30,30,30,30,30,30,35,35,35,35,35,35,35,36,36,36,36,36,36,36,36,36,36,36,36,36,36,36,36,37,37,37,37,37,37,37,37,37,37,37,37,37,37,37,37,37,37,37,36,36,36,35,35,35,35,35,35,35,35,35,35,35,31,32,32,32,32,32,32,32,32,35,35,35,35,35,10,10,10,10,35,35,18,35,35,35,35,35,35,35,35,35,35,35,35,35,35,35,35,35,35,35,35,35,35,35,35,35,35,35,35,35,35,36,36,36,36,37,36,36,37,37,37,37,37,37,37,37,37,37,37,37,30,31,32,30,30,30,30,30,30,30,30,30,30,30,30,30,30,30,30,35,32,32,32,35,35,35,35,35,35,35,35,35,35,35,35,35,35,35,35,35,35,35,35,35,35,35,35,35,35,35,35,35,35,35,35,35,35,35,35,35,35,35,35,35,20,30,30,30,20,20,20,20,20,20,20,21,25,25,25,25,25,25,25,25,25,25,35,35,35,35,35,35,35,35,35,35,35,35,35,35,35,35,35,35,35,35,40,35,35,35,35,35,35,40,35,35,35,35,40,40,40,40,40,0,0,0,0,0,0,0
0,0,0,0,0,0,0,59,60,56,58,58,61,61,59,62,61,62,62,62,61,61,62,62,62,62,61,62,62,62,61,60,60,28,28,28,28,28,29,29,29,23,23,23,35,38,38,38,38,38,35,35,35,35,35,35,35,35,35,35,35,35,35,35,35,35,35,35,35,40,40,40,40,35,35,35,35,35,35,35,35,35,35,35,35,35,35,35,35,35,35,35,35,35,35,35,35,35,35,35,35,35,35,35,35,35,35,35,35,35,30,30,30,30,30,30,30,30,30,30,30,35,35,35,35,35,35,35,35,35,35,35,35,35,35,35,35,35,35,30,30,30,30,30,30,30,30,30,30,30,30,30,30,30,30,30,30,30,30,30,30,30,30,30,30,30,30,30,30,30,30,30,30,30,35,35,35,35,35,35,35,35,35,35,35,35,35,35,35,35,35,33,30,30,30,30,30,30,35,35,35,35,35,35,35,35,35,36,36,36,36,36,36,36,36,36,36,36,36,36,36,36,37,36,37,37,37,37,37,37,37,37,37,37,37,37,37,37,37,37,37,36,36,35,35,35,35,35,35,35,35,35,35,35,35,32,32,32,32,32,32,32,32,35,35,35,35,35,10,10,10,10,35,26,26,27,35,35,35,35,35,35,35,35,35,35,35,35,35,35,35,35,35,35,35,35,35,35,35,35,35,35,35,35,36,36,36,37,37,37,37,37,37,37,37,37,37,37,37,37,37,37,37,35,30,31,32,33,30,30,30,30,30,30,30,30,30,30,30,34,30,30,32,32,32,32,32,32,32,35,35,35,35,35,35,38,35,35,35,35,35,35,35,35,35,35,35,35,35,35,35,35,35,35,35,35,35,35,35,35,35,35,35,35,35,35,35,35,35,30,30,30,30,20,20,20,25,35,25,25,25,25,25,25,25,25,25,25,25,25,35,35,35,35,35,35,35,35,35,35,35,35,35,35,35,35,35,35,35,35,40,35,35,35,35,40,35,40,40,40,40,40,40,40,40,40,40,0,0,0,0,0,0,0
0,0,0,0,0,0,0,54,55,56,55,58,61,61,61,62,61,62,62,62,62,62,62,62,62,62,62,62,62,62,62,60,60,28,28,28,28,28,29,30,29,29,23,35,35,36,38,38,38,38,35,35,35,35,35,35,35,35,35,35,35,35,35,35,35,35,35,35,35,40,40,40,35,35,35,35,35,35,35,35,35,35,35,35,35,35,35,35,35,35,35,35,35,35,35,35,35,35,35,35,35,35,35,35,35,35,35,35,35,35,35,30,30,30,30,30,30,30,35,35,35,35,35,35,35,35,35,35,35,35,35,35,35,35,35,35,35,35,30,30,30,30,30,30,30,30,30,30,30,30,30,30,30,30,30,30,30,30,30,30,30,30,30,30,30,30,30,30,30,30,30,30,30,35,35,35,35,35,35,35,35,35,35,35,35,35,35,35,35,35,30,30,30,30,30,30,30,30,35,35,35,35,35,35,35,35,35,35,35,35,36,36,36,36,36,36,36,36,36,36,36,36,37,36,37,37,37,37,37,37,37,37,37,37,37,37,37,37,37,37,37,36,36,35,35,35,35,35,35,35,35,35,35,35,35,35,32,31,32,32,32,34,35,35,35,35,35,35,35,35,10,10,35,26,26,35,35,35,35,35,35,35,35,35,35,35,35,35,35,35,35,35,35,35,35,35,35,35,35,35,35,35,35,37,36,37,37,37,37,37,37,37,37,37,37,37,37,37,37,37,37,37,37,35,31,31,33,33,33,33,30,30,30,30,30,30,33,33,34,34,34,34,34,32,32,32,32,32,35,35,35,35,35,35,35,38,35,35,35,35,35,35,35,35,35,35,35,35,35,35,35,35,35,35,35,35,35,35,35,35,35,35,35,35,35,35,35,20,20,20,30,30,20,20,20,40,40,40,35,21,40,40,22,25,25,25,25,25,25,35,35,35,30,35,35,35,35,35,35,35,35,35,35,35,35,40,40,40,40,40,40,40,40,40,40,40,40,40,40,40,40,40,40,40,40,40,40,0,0,0,0,0,0,0
0,0,0,0,0,0,0,54,55,55,55,55,61,61,61,62,62,62,62,62,62,62,62,62,62,62,62,62,62,62,62,60,60,28,28,28,28,28,29,30,30,30,29,35,35,36,38,38,38,38,35,35,35,35,35,35,35,35,35,35,35,35,35,35,35,35,35,35,35,40,35,40,35,35,35,35,35,35,35,35,35,35,35,35,35,35,35,35,35,35,35,35,35,35,35,35,35,35,35,35,35,35,35,35,35,35,35,35,35,35,30,30,30,35,30,35,35,35,35,35,35,35,35,35,35,35,35,35,35,35,35,35,35,35,35,35,35,35,35,30,30,30,30,30,30,30,30,30,31,29,30,30,30,30,30,30,30,30,30,30,30,30,30,30,30,30,30,30,30,30,30,30,30,35,35,35,35,35,35,35,35,35,40,35,35,35,35,35,35,35,30,30,30,30,30,30,30,30,35,35,35,35,35,35,35,35,35,35,35,35,35,35,36,36,36,36,36,36,36,36,36,36,37,37,37,37,37,37,37,37,37,37,37,37,37,37,37,37,37,37,37,36,36,35,35,35,35,35,35,35,35,35,35,35,35,35,35,31,32,32,32,30,35,35,35,35,35,35,7,7,7,26,26,26,26,35,35,33,35,35,35,35,35,35,35,35,35,35,35,35,35,35,35,35,35,35,35,35,35,35,35,35,39,40,37,37,37,37,37,37,37,37,37,37,37,37,37,37,37,37,37,37,37,35,35,32,33,33,33,33,33,33,33,33,33,33,33,33,33,33,33,33,33,32,32,32,32,36,35,35,36,36,36,36,39,38,39,39,35,35,35,35,35,35,35,35,35,35,35,35,35,35,35,35,35,35,35,35,35,35,35,35,35,35,35,35,35,20,20,20,35,30,40,40,40,40,40,40,36,40,38,40,38,22,20,22,22,22,22,22,30,30,30,35,35,35,35,35,35,35,35,35,41,41,41,40,40,40,40,40,40,40,40,40,40,40,40,40,40,40,40,40,40,40,40,40,40,0,0,0,0,0,0,0
0,0,0,0,0,0,0,54,55,55,55,55,56,58,61,62,62,62,62,62,62,62,62,62,62,62,62,62,62,62,62,60,60,28,28,28,28,28,29,30,30,30,30,35,35,35,37,38,38,38,38,39,35,35,35,35,35,35,35,40,40,40,35,35,35,35,35,35,40,40,35,35,35,35,35,35,35,35,35,35,35,35,35,35,35,35,35,35,35,35,35,35,35,35,35,35,35,35,35,35,35,35,35,35,35,35,40,40,40,40,40,30,35,35,35,35,35,35,35,35,35,35,35,35,35,35,35,35,35,35,35,35,35,35,35,35,35,35,35,30,30,30,30,30,30,31,30,30,31,32,29,29,30,30,30,31,32,30,30,30,30,30,30,30,30,30,30,30,30,30,30,30,35,35,35,35,35,35,35,35,35,40,40,41,44,44,47,35,47,35,30,30,33,33,30,30,30,30,35,35,35,35,35,35,35,35,35,35,35,35,35,35,35,36,36,36,36,36,36,36,36,36,37,36,37,37,37,37,37,37,37,37,37,37,37,37,37,37,37,37,37,36,36,35,35,35,35,35,35,35,35,35,35,35,35,35,35,31,30,31,30,30,35,35,35,39,35,35,30,23,23,26,26,26,26,35,35,35,35,35,35,35,35,35,35,35,35,35,35,35,35,35,35,35,35,35,35,34,35,35,35,40,40,40,40,37,37,37,37,37,37,39,40,40,40,40,37,35,37,37,37,37,35,35,35,35,33,33,33,33,33,33,33,33,33,33,33,33,33,33,33,36,36,36,33,32,36,36,35,36,36,36,36,36,36,38,39,39,39,35,35,35,35,35,35,35,35,35,35,35,35,35,35,35,35,35,35,35,35,35,35,35,35,35,35,25,25,20,20,20,20,40,40,40,40,40,40,35,36,30,38,39,39,20,20,20,20,22,22,35,20,21,33,35,35,35,35,35,35,35,41,41,41,41,41,41,41,41,41,41,40,41,40,40,40,40,40,40,40,40,40,40,40,40,40,40,40,0,0,0,0,0,0,0
0,0,0,0,0,0,0,54,55,47,47,48,61,61,61,62,61,62,62,62,62,62,62,62,62,62,62,62,62,62,59,60,60,28,28,28,28,28,29,30,30,30,29,35,35,36,37,38,38,39,39,40,40,40,40,40,40,40,40,40,40,40,35,35,35,35,35,35,40,35,35,35,35,35,35,35,35,35,35,35,35,35,35,35,35,35,35,35,35,35,35,35,35,35,35,35,35,35,35,35,35,35,35,35,35,35,40,40,40,40,40,40,45,40,35,35,35,35,35,35,35,35,35,35,35,35,35,35,35,35,35,35,35,35,35,35,35,35,35,35,31,31,31,31,31,31,31,31,31,32,32,29,30,32,31,31,31,32,31,31,32,32,32,32,32,31,31,37,39,39,39,39,35,35,35,35,35,35,36,40,40,40,40,45,45,45,47,45,46,48,48,33,33,33,30,30,30,30,35,35,35,35,35,35,35,35,35,35,35,35,35,35,35,36,36,36,36,36,36,36,36,36,37,36,37,37,37,37,37,37,37,37,37,37,37,37,37,37,37,37,37,39,40,35,35,35,35,35,35,35,35,35,35,35,35,35,35,35,30,30,30,39,39,35,39,39,35,35,30,35,35,26,26,26,26,35,35,30,35,35,35,35,35,35,35,35,35,35,35,35,35,35,35,35,35,35,35,34,35,35,40,40,40,40,40,40,40,40,37,37,39,39,40,40,40,40,40,35,40,33,33,33,33,33,33,33,33,33,33,33,33,33,33,33,33,33,33,33,33,33,33,36,36,36,33,36,36,36,36,36,36,36,36,36,37,38,39,39,39,35,35,35,35,35,35,35,35,35,35,35,35,35,35,35,35,35,35,35,35,35,35,35,35,35,35,25,25,20,20,20,20,20,20,40,40,40,35,35,36,30,38,39,39,39,39,20,34,34,34,30,30,30,22,34,35,35,35,35,35,41,41,41,41,41,41,41,41,41,41,41,41,41,41,40,40,40,40,40,40,40,40,40,40,40,40,40,40,0,0,0,0,0,0,0
0,0,0,0,0,0,0,54,55,55,47,48,61,61,61,62,61,62,62,62,62,61,62,62,62,62,62,62,62,62,59,60,60,60,60,28,29,29,29,30,30,30,29,34,35,36,37,38,39,39,40,40,40,40,40,40,40,40,40,40,40,40,40,35,35,35,35,35,40,40,40,40,35,35,35,35,35,35,35,36,36,37,37,35,35,35,35,35,35,35,35,35,35,35,35,35,35,35,35,35,35,35,35,35,35,39,40,40,40,40,40,45,45,45,40,35,35,35,35,35,35,35,35,35,35,35,35,35,35,35,35,35,35,35,35,35,35,38,38,38,40,35,31,31,31,31,31,31,31,32,32,32,32,32,31,32,32,32,32,32,32,32,32,32,32,33,37,37,39,40,40,40,40,40,40,35,40,40,40,40,40,40,40,45,45,45,46,45,48,48,48,33,33,33,33,30,35,35,35,35,35,35,38,35,35,35,35,35,35,35,35,35,35,36,36,36,36,36,36,36,36,36,37,36,37,37,37,37,37,37,37,37,37,37,37,37,37,37,37,37,39,39,40,40,35,35,35,35,35,35,35,35,35,35,35,35,35,35,35,35,39,39,39,39,39,39,39,35,35,35,35,35,35,35,30,35,30,30,35,35,35,35,35,35,35,35,39,35,35,35,35,35,35,35,35,35,35,34,35,40,40,40,40,40,40,40,40,40,40,40,39,40,40,40,40,40,40,40,40,33,33,33,33,33,33,33,33,33,33,33,33,33,33,33,33,33,34,33,33,33,33,36,36,36,36,35,35,36,35,35,36,36,36,36,39,39,39,39,39,35,35,35,35,35,35,35,35,35,35,35,35,35,35,35,35,35,35,35,35,35,35,35,35,20,25,25,20,20,20,20,20,20,20,40,40,40,40,35,36,30,30,39,39,41,42,41,34,35,30,30,30,30,33,35,35,35,35,35,41,41,41,41,41,41,41,41,41,41,41,41,41,41,41,40,41,40,40,40,40,40,40,40,40,40,40,40,40,0,0,0,0,0,0,0
0,0,0,0,0,0,0,54,55,55,47,55,61,61,61,62,61,61,55,55,55,61,62,62,62,60,60,62,62,62,59,59,60,60,60,28,29,29,29,30,30,30,30,34,35,36,37,38,39,39,40,40,40,40,40,40,40,40,40,40,40,40,40,40,35,40,40,40,40,40,40,40,40,35,35,35,35,35,35,36,36,37,37,35,37,37,35,35,35,35,35,35,35,35,35,35,35,35,35,35,35,35,35,35,39,39,39,40,41,42,42,45,45,42,42,42,35,35,35,35,35,35,35,35,35,35,35,35,35,35,35,35,35,35,40,40,38,38,38,38,40,40,38,38,35,47,37,38,31,32,32,32,32,32,32,39,39,32,32,32,32,32,32,32,32,33,37,37,40,39,39,40,35,35,35,35,40,40,40,40,40,45,45,45,45,45,44,45,46,48,48,33,33,33,33,30,35,35,35,35,35,38,38,38,35,38,35,35,35,35,35,35,35,35,35,35,35,35,35,35,35,35,35,35,35,37,37,37,37,37,37,37,37,37,37,37,39,40,40,40,39,51,51,40,40,40,40,35,35,35,35,35,35,35,35,35,35,35,35,35,35,39,39,39,39,39,35,35,35,35,35,35,35,35,30,35,30,30,35,35,35,35,35,39,39,39,39,39,39,35,39,39,39,35,35,35,35,34,35,40,40,40,40,40,40,40,40,40,40,40,40,40,40,40,40,40,40,35,35,33,33,33,33,33,33,33,33,33,33,33,33,33,33,33,33,33,34,40,40,34,34,40,40,40,33,40,40,36,35,35,36,36,38,39,39,38,43,43,43,43,43,43,35,35,35,35,35,35,35,35,35,35,35,35,35,35,35,35,35,35,35,35,25,25,25,25,25,20,20,20,20,25,40,40,40,40,40,40,40,42,38,39,42,41,42,42,42,42,42,30,30,30,42,42,35,35,42,42,41,41,41,41,41,41,41,41,41,41,41,41,41,41,41,41,41,40,40,40,40,40,40,40,40,40,40,40,40,0,0,0,0,0,0,0
0,0,0,0,0,0,0,54,55,55,47,48,61,50,61,61,61,61,55,55,55,61,61,62,60,60,60,60,62,62,59,59,60,60,25,28,28,28,29,30,30,30,30,34,35,36,37,38,39,40,40,40,40,40,40,40,40,40,40,40,40,40,40,40,40,40,40,40,40,40,40,40,40,40,35,35,35,35,35,35,36,37,35,35,37,37,35,35,35,35,35,35,35,35,35,35,35,35,35,35,35,35,35,39,39,39,39,39,41,42,42,43,45,42,42,42,43,43,43,35,35,35,35,35,35,35,35,35,35,35,35,35,35,35,40,40,38,38,38,41,43,43,48,47,47,47,47,41,44,44,44,44,44,44,45,45,45,45,45,45,45,44,45,45,44,41,41,41,43,40,43,44,45,40,40,40,45,45,45,45,45,45,45,45,45,45,44,45,46,48,48,33,33,33,33,34,35,35,35,38,38,38,38,38,38,38,38,38,38,38,38,35,35,36,36,35,35,35,35,35,35,35,35,35,35,35,35,37,37,37,37,37,37,37,37,37,39,40,40,40,51,51,52,51,40,40,40,40,40,40,40,35,35,35,35,40,40,40,40,39,39,39,39,39,39,39,35,35,35,35,35,35,35,35,30,35,35,35,35,35,35,39,39,39,39,39,39,39,39,39,39,39,39,35,40,35,35,34,35,38,40,40,40,40,40,40,40,40,40,40,40,40,40,40,40,40,34,35,35,33,33,33,33,33,33,33,33,33,33,40,33,33,33,40,40,40,39,40,40,40,40,36,36,36,36,40,36,36,35,36,36,36,36,36,39,38,43,43,43,43,43,43,35,35,35,35,35,35,35,35,35,35,35,35,35,35,35,35,35,35,35,35,25,25,25,25,25,20,25,20,25,25,25,40,40,40,40,40,40,40,38,41,41,41,42,42,42,42,36,36,36,30,42,42,42,42,42,41,41,41,42,41,41,43,43,43,43,41,43,43,41,41,43,43,40,40,40,40,40,40,40,40,40,40,40,40,40,0,0,0,0,0,0,0
0,0,0,0,0,0,0,54,55,47,47,48,61,61,61,61,61,61,55,55,59,61,61,61,60,60,60,60,60,60,59,60,60,24,25,25,28,28,29,30,30,30,30,34,35,36,37,38,39,40,40,40,40,40,40,40,40,40,40,40,40,40,40,40,40,40,40,40,40,40,40,40,40,40,40,40,40,35,35,36,36,37,35,35,37,37,35,35,35,35,35,35,35,35,35,35,35,35,35,35,35,35,41,39,39,39,39,41,42,42,43,43,45,42,43,42,43,43,43,43,43,35,35,35,35,35,35,38,35,38,38,38,39,39,39,40,38,38,38,43,43,43,44,44,44,44,44,44,44,44,44,44,44,44,45,45,45,45,45,45,45,44,45,45,45,45,45,45,45,45,45,45,45,45,45,45,45,45,45,45,45,45,45,45,45,45,45,45,45,47,48,45,39,40,39,34,35,38,39,38,38,38,38,38,38,38,38,38,38,38,38,35,35,36,36,36,35,35,36,36,36,36,36,35,35,35,36,37,36,37,37,37,37,37,37,38,39,40,40,53,51,53,53,53,40,40,40,40,40,40,40,35,35,35,40,40,40,40,40,39,39,39,39,39,39,39,39,35,29,35,35,35,35,35,30,30,39,39,39,39,39,39,39,39,39,39,39,39,39,39,39,39,39,62,40,34,62,37,37,38,37,38,38,40,40,40,40,38,38,38,38,41,41,41,41,33,34,34,33,33,33,33,33,33,33,33,33,33,33,40,40,33,33,40,40,40,40,40,40,40,40,40,40,36,36,40,36,36,44,36,36,36,36,36,39,39,43,43,43,43,43,43,35,35,35,43,35,35,35,35,35,35,35,35,35,35,35,35,35,35,35,35,35,20,25,25,25,20,20,20,25,25,25,40,40,40,40,40,40,40,40,40,36,41,42,36,36,36,36,36,36,30,42,42,42,42,42,41,41,43,41,41,41,43,43,43,43,43,43,43,43,43,43,43,43,43,40,40,40,40,40,41,40,40,40,40,40,0,0,0,0,0,0,0
0,0,0,0,0,0,0,4,55,47,47,48,61,61,61,61,61,61,61,62,32,61,61,0,0,0,0,3,3,3,3,3,23,24,25,25,28,28,29,30,30,30,30,30,35,36,39,38,39,40,40,40,40,40,40,40,40,40,40,40,40,40,40,40,40,40,40,40,40,40,40,40,40,40,38,40,40,38,38,38,38,37,37,37,37,37,37,35,35,35,35,35,35,35,35,35,35,35,35,41,41,41,41,39,41,41,45,41,42,42,43,45,45,45,43,43,43,43,43,43,43,43,43,43,38,38,38,38,38,38,38,38,39,39,38,38,38,38,38,43,43,43,43,43,44,47,46,44,44,44,44,45,45,45,45,45,45,45,45,45,45,44,45,45,45,45,45,45,45,46,45,45,45,45,45,45,45,45,45,45,45,45,45,45,45,45,45,45,46,46,45,45,39,39,39,39,38,38,38,38,38,38,38,38,38,38,38,38,38,38,38,38,35,36,36,36,35,35,35,35,36,35,35,35,35,35,37,37,37,37,37,37,37,37,37,37,41,50,50,50,46,50,50,55,46,46,41,41,46,46,46,46,46,35,40,40,40,39,40,39,39,39,39,39,39,39,41,41,39,35,35,37,37,37,37,37,39,39,39,39,39,39,39,39,39,39,39,39,45,55,55,55,55,55,55,34,37,37,38,38,38,38,38,38,38,42,38,38,38,38,38,38,42,42,42,33,34,34,34,34,33,33,33,33,33,33,33,33,33,40,40,40,40,40,40,40,40,40,40,40,46,46,46,40,40,40,40,36,44,36,44,36,39,39,39,39,43,43,43,43,43,43,43,42,42,43,42,43,41,41,41,35,35,35,37,35,37,37,37,37,37,37,25,25,25,25,25,25,25,25,25,25,25,25,25,41,41,41,41,41,41,41,41,41,41,41,36,36,41,41,36,41,41,42,41,41,42,41,41,41,41,41,41,43,41,41,41,43,43,43,41,41,43,43,41,41,41,40,42,41,41,41,41,41,41,41,0,0,0,0,0,0,0,0
0,0,0,0,0,0,0,1,51,47,47,48,51,51,51,51,55,55,3,3,3,0,0,0,0,0,0,3,0,3,3,22,23,24,25,25,25,29,29,30,30,30,30,30,35,36,37,38,39,40,40,40,40,40,40,40,40,40,40,40,40,40,40,40,40,40,40,40,40,40,40,40,40,40,38,38,40,38,38,38,38,37,37,37,37,37,37,35,35,35,35,35,35,35,35,35,35,41,41,41,41,41,41,39,41,45,45,41,42,42,46,45,46,46,43,42,43,43,43,43,43,43,43,38,38,38,38,38,38,38,38,38,38,38,38,38,38,38,38,38,43,43,43,47,46,47,46,42,42,42,46,46,46,46,45,46,46,46,45,46,46,46,46,46,46,46,46,46,46,46,46,46,46,46,46,46,46,46,42,42,42,42,42,42,43,43,46,47,46,47,47,38,39,38,34,34,38,38,38,38,38,38,38,38,38,38,38,38,38,38,38,38,38,38,38,38,35,35,35,35,35,35,35,35,35,35,37,37,38,37,37,37,37,37,42,38,46,42,42,46,46,46,46,55,46,46,46,42,46,46,46,46,46,46,39,39,42,39,39,39,39,39,39,39,39,39,39,39,39,39,39,37,37,39,39,37,39,39,39,39,39,39,39,39,39,46,46,46,46,55,46,46,55,55,60,60,37,37,38,38,38,38,38,38,38,38,38,38,38,38,38,38,30,34,34,34,34,34,34,34,34,34,34,34,34,34,34,34,40,40,40,39,40,40,40,40,40,40,40,40,40,40,40,40,40,40,40,44,44,44,44,44,39,39,39,39,43,43,43,43,43,43,43,42,42,43,42,42,42,42,42,42,42,37,37,37,37,37,37,37,37,25,25,25,25,25,25,25,25,25,25,25,25,25,41,41,41,41,41,41,41,41,41,41,41,41,41,42,41,42,43,42,42,42,42,42,42,42,43,43,42,46,46,46,46,42,42,43,43,43,41,41,43,43,41,43,42,42,42,41,41,41,41,41,45,41,0,0,0,0,0,0,0,0
0,0,0,0,0,0,0,0,0,47,48,48,48,61,4,4,61,0,3,0,0,0,0,0,0,0,0,0,0,0,21,21,21,21,25,25,25,29,29,30,30,30,30,30,30,30,30,30,39,40,40,40,40,40,40,40,40,40,40,40,40,40,40,38,38,38,38,38,38,38,38,38,38,38,38,38,38,38,38,38,38,38,38,38,38,38,34,34,34,34,34,34,35,39,35,35,38,38,38,39,39,47,47,47,47,47,47,47,47,47,47,47,47,47,43,43,43,43,43,43,43,43,43,43,38,38,38,38,38,38,38,38,38,38,38,38,38,38,38,43,43,43,43,43,47,47,47,47,43,43,43,43,47,43,46,46,47,47,47,46,46,47,47,47,47,47,47,47,47,47,47,43,42,42,43,43,43,43,43,43,43,43,43,43,43,43,43,47,47,47,43,43,39,43,39,43,38,39,39,38,39,38,38,38,39,39,38,38,38,38,38,39,35,35,35,35,35,35,35,35,35,35,35,35,35,35,35,43,43,43,43,37,43,42,38,38,42,42,42,42,51,51,51,55,55,46,46,42,42,46,46,46,46,39,39,39,39,39,39,39,39,39,39,39,39,39,39,39,39,39,38,37,37,37,37,37,37,37,37,46,46,46,46,47,46,46,46,46,46,55,55,46,52,52,52,47,52,38,38,38,38,38,38,38,38,30,30,38,38,17,39,39,30,39,39,30,34,35,26,26,31,40,40,40,40,40,40,40,40,40,40,40,40,40,40,40,40,40,40,40,40,40,40,40,36,40,40,35,44,44,44,44,44,44,39,44,44,44,44,44,43,43,44,37,42,42,42,42,42,42,42,41,41,37,37,37,37,37,29,37,37,25,25,25,25,25,25,25,25,25,25,25,25,25,41,41,41,41,41,41,41,41,41,41,41,41,41,42,42,42,42,42,42,42,42,43,43,43,43,43,43,43,43,43,43,43,43,43,43,43,43,43,43,43,43,42,42,42,42,42,42,42,42,42,41,41,0,0,0,0,0,0,0,0
0,0,0,0,0,0,0,0,0,47,47,48,0,4,4,4,0,0,0,0,0,0,0,0,0,0,0,0,0,0,0,22,21,21,22,22,22,22,22,30,30,30,26,30,35,30,30,30,39,39,39,39,40,40,40,35,35,35,40,40,40,35,35,35,35,35,35,38,38,38,43,38,38,38,38,38,38,38,38,38,39,39,39,39,26,39,39,39,39,35,35,39,39,39,39,39,39,39,39,39,39,39,47,39,47,48,47,43,47,47,47,47,47,47,43,43,43,43,43,43,43,43,43,43,43,43,43,43,43,43,43,43,43,39,39,43,43,43,43,43,43,43,43,43,43,43,43,43,43,43,43,43,43,43,43,44,47,47,47,47,47,47,47,47,47,47,47,47,47,47,47,43,43,43,43,43,43,43,43,43,43,43,43,43,43,43,43,47,47,47,43,43,43,43,39,43,39,39,39,39,39,39,39,39,39,39,39,39,39,13,13,13,17,17,17,17,35,40,40,40,40,40,40,35,35,35,43,43,43,42,42,42,42,42,42,42,42,51,42,51,51,51,55,51,55,55,46,47,42,46,46,39,39,39,39,39,39,39,39,39,39,39,39,39,39,39,39,39,39,39,39,39,38,39,39,38,38,38,38,47,47,47,47,47,47,47,47,47,47,47,52,47,52,52,52,52,52,34,38,38,38,38,38,38,39,17,17,17,26,17,18,18,26,40,40,40,27,31,27,27,40,40,40,40,40,40,40,40,40,40,40,40,40,40,40,40,40,40,40,40,40,40,40,40,36,40,40,40,40,44,44,44,44,44,44,44,44,44,44,44,44,44,44,44,44,44,49,41,41,41,41,41,41,41,37,37,37,54,54,54,54,54,54,58,25,25,25,25,25,25,41,41,41,41,45,45,41,41,41,41,41,41,41,41,41,41,41,41,41,42,42,45,49,49,42,43,43,43,43,43,43,43,43,43,43,43,43,43,43,43,41,41,43,43,41,41,42,42,42,42,42,42,42,41,45,41,0,0,0,0,0,0,0,0
0,0,0,0,0,0,0,0,0,22,22,31,24,31,31,27,0,0,35,0,0,0,0,0,0,0,0,0,0,0,0,22,22,0,0,22,22,22,22,22,22,31,26,26,35,35,35,35,39,40,40,40,40,40,40,40,40,40,40,40,40,40,40,35,35,35,35,35,35,40,40,35,35,35,35,39,39,39,39,39,39,26,26,26,26,26,35,35,35,35,35,35,35,35,35,35,35,35,48,48,48,48,48,48,48,48,48,48,48,48,48,48,48,43,43,43,43,43,43,43,43,43,43,43,43,43,43,43,43,43,39,39,39,39,39,39,43,43,43,43,43,43,43,43,43,43,43,43,43,43,44,44,44,44,44,44,44,44,44,44,44,44,48,48,48,48,48,44,47,47,43,43,43,43,43,43,43,43,43,43,43,43,43,43,43,43,44,44,48,44,43,44,44,44,44,44,44,39,39,39,39,39,39,44,39,13,13,13,13,13,13,13,13,17,17,18,18,45,45,40,45,45,40,45,45,45,43,43,42,42,42,42,42,42,42,42,51,50,50,51,51,51,55,55,55,55,55,55,46,46,46,46,46,46,39,39,39,39,39,39,39,39,39,39,39,39,39,39,39,39,39,39,39,39,39,39,38,38,38,47,47,47,47,47,47,47,47,47,47,52,52,52,52,52,52,52,52,53,0,0,0,0,62,62,0,62,62,62,14,18,18,18,18,40,18,18,27,27,27,27,40,40,40,40,40,40,40,45,45,40,45,40,40,40,45,40,40,40,40,40,40,40,40,40,40,40,40,40,44,44,44,44,44,44,44,44,44,44,44,44,44,44,44,44,44,44,41,41,41,41,41,41,41,41,41,41,41,41,41,54,54,54,54,25,25,25,25,25,25,45,41,41,45,45,45,45,45,41,41,41,41,41,41,41,41,41,41,41,41,41,42,45,49,49,42,43,43,43,43,43,43,43,43,43,43,43,43,43,41,41,41,41,41,41,41,41,41,42,40,41,41,41,41,45,45,0,0,0,0,0,0,0,0,0
0,0,0,0,0,0,0,0,0,22,22,31,24,0,0,0,0,0,0,0,0,0,0,0,0,0,0,0,0,0,0,0,22,0,22,22,22,22,22,22,22,22,26,26,35,35,27,39,39,39,39,40,40,40,40,40,40,44,44,40,40,40,40,44,35,35,35,35,35,35,35,35,35,35,35,39,39,35,39,22,22,26,26,26,26,26,35,35,35,35,35,35,35,35,35,35,44,39,48,39,48,48,48,48,48,48,48,48,48,48,48,48,48,56,43,43,43,43,43,43,43,43,43,43,43,43,43,43,43,43,43,39,39,39,39,39,43,43,43,43,43,43,43,43,43,43,43,43,43,43,44,44,44,44,44,44,44,44,44,44,44,44,48,48,48,48,48,44,47,47,43,43,43,43,43,43,43,43,43,43,43,43,43,43,43,43,44,44,43,43,43,44,44,44,44,44,44,39,39,39,39,39,39,44,13,13,13,13,13,13,13,13,13,17,45,18,45,45,45,45,45,45,40,45,45,45,43,43,42,42,42,42,42,42,42,42,51,51,51,51,51,51,51,55,55,55,55,55,42,46,46,46,46,46,39,39,39,39,39,39,39,39,39,39,39,39,39,39,39,39,39,39,39,39,39,38,38,38,38,38,38,38,47,47,47,47,47,47,47,52,52,52,52,52,52,52,52,53,0,0,0,62,62,62,0,0,62,62,14,18,18,18,18,40,18,23,27,27,27,27,40,40,40,40,40,40,40,45,45,40,45,40,40,40,45,40,40,40,40,40,40,40,40,40,40,40,40,40,44,44,44,44,44,44,44,44,44,44,44,44,44,44,44,44,44,44,41,41,41,41,41,41,41,41,41,41,41,41,41,54,54,54,54,25,25,25,25,25,25,41,41,41,41,45,45,45,45,41,41,41,41,41,41,41,41,41,41,41,41,41,45,49,49,49,42,43,43,43,43,43,43,43,43,43,43,43,43,43,41,41,41,41,41,41,41,41,42,42,40,41,41,41,41,41,45,0,0,0,0,0,0,0,0,0
0,0,0,0,0,0,0,0,0,22,22,31,24,31,26,27,0,0,0,0,0,0,0,0,0,0,0,0,0,0,0,22,22,22,22,22,22,22,22,22,22,22,26,26,35,27,27,39,39,40,40,40,40,40,40,40,44,44,44,40,40,40,44,44,35,35,35,35,35,35,35,35,35,35,35,35,39,35,35,22,22,22,22,22,26,31,31,35,35,35,35,35,35,35,44,44,44,39,48,48,48,48,48,48,48,48,48,48,48,48,48,48,48,56,56,43,43,43,43,43,43,43,43,43,43,43,43,43,43,43,43,39,39,39,39,39,43,43,43,43,43,43,43,43,43,43,43,43,43,43,44,44,43,44,44,44,44,44,44,44,44,44,48,48,48,48,48,44,44,48,48,44,43,43,43,43,43,43,43,43,43,43,43,43,43,43,44,44,26,26,43,44,44,44,44,44,44,39,39,39,39,39,39,44,13,13,13,13,13,13,13,13,14,17,45,18,45,45,45,45,45,45,45,45,45,45,43,43,42,42,42,42,42,42,42,51,51,51,51,51,51,51,55,55,55,55,55,55,46,46,46,46,46,46,39,41,39,39,39,39,39,39,39,39,39,39,39,39,39,39,39,39,39,39,39,39,38,38,38,38,38,47,47,47,47,47,47,47,52,52,52,52,52,52,52,47,52,53,0,0,0,0,0,0,0,0,0,0,0,0,1,1,1,40,40,18,27,40,27,27,40,40,40,40,40,40,40,45,45,40,45,40,40,45,45,45,40,40,40,40,40,40,40,36,40,40,40,44,44,44,44,44,44,44,44,44,44,44,44,44,44,44,44,44,44,44,41,41,41,41,41,41,41,41,41,41,41,41,41,41,41,41,54,45,45,25,25,41,45,45,45,41,45,45,45,45,41,41,41,41,41,41,41,41,41,41,41,41,41,42,45,49,49,49,42,43,43,43,43,43,43,43,43,43,43,43,43,43,41,41,41,41,41,41,41,41,42,42,42,41,41,41,41,41,45,0,0,0,0,0,0,0,0,0
0,0,0,0,0,0,0,0,0,22,22,31,31,31,31,27,0,0,0,0,0,0,0,0,0,0,0,0,0,0,0,0,1,0,0,22,22,22,22,22,22,22,26,26,26,27,27,26,39,40,40,40,43,40,40,44,44,44,44,44,40,35,44,35,35,35,35,35,35,35,35,35,35,35,44,39,39,43,43,22,22,26,22,26,26,31,31,35,35,35,35,35,35,35,44,44,44,48,48,48,48,48,48,48,48,48,48,48,48,48,48,48,48,56,56,43,43,43,43,43,43,43,43,43,43,43,43,43,43,43,43,39,39,39,39,43,43,43,43,43,43,43,43,43,43,43,43,43,43,43,43,44,43,44,44,44,44,44,44,44,44,44,48,48,48,48,48,44,48,48,48,44,43,43,43,43,43,43,43,43,43,43,43,43,43,43,43,44,44,43,43,44,44,44,44,44,44,44,39,39,39,39,39,44,13,13,13,13,13,13,13,13,13,13,45,45,45,45,45,45,45,45,45,45,45,45,43,43,42,42,42,42,42,46,46,46,51,50,51,51,51,51,55,55,55,55,55,55,42,42,42,46,46,46,41,41,39,39,39,39,22,39,39,39,39,39,39,39,39,39,39,39,39,39,39,39,38,38,43,47,47,47,47,47,47,47,52,52,52,52,52,52,52,52,52,47,52,57,0,0,0,0,0,0,0,0,0,0,0,9,1,1,14,14,54,18,27,54,27,14,40,40,40,40,40,40,40,45,45,40,45,40,40,45,45,45,45,45,45,40,40,40,36,36,36,40,44,44,44,44,44,44,44,44,44,44,44,44,44,44,44,44,44,44,44,44,41,41,41,41,41,41,41,41,41,41,45,41,41,41,49,49,54,45,45,45,54,45,45,45,45,41,45,45,45,45,45,41,41,41,41,41,41,41,41,41,41,41,41,41,42,45,49,49,42,43,43,43,43,43,43,43,43,43,43,43,43,43,43,43,41,41,41,41,41,41,42,42,42,41,41,41,41,45,45,0,0,0,0,0,0,0,0,0
0,0,0,0,0,0,0,0,0,22,22,27,0,0,0,0,0,0,0,0,0,0,0,0,0,0,0,0,0,5,5,22,22,22,22,22,22,22,22,22,22,22,22,26,26,27,27,26,39,40,40,43,43,44,44,44,44,44,44,44,44,44,44,44,44,35,44,44,44,44,44,44,48,48,48,48,48,48,48,22,43,43,22,22,31,31,31,44,35,35,35,35,35,44,44,44,44,43,48,48,48,48,48,48,48,48,48,48,48,43,48,48,48,56,56,43,43,43,43,43,43,43,43,43,43,43,43,43,43,43,43,43,43,43,43,43,43,43,43,43,43,43,43,43,43,43,43,43,43,43,43,44,43,44,44,44,44,44,44,44,44,48,48,48,48,48,48,48,48,48,48,48,43,43,43,43,43,43,43,43,43,43,43,43,43,43,43,43,43,43,43,44,44,44,44,44,44,44,44,9,9,9,9,9,13,13,13,13,13,13,13,13,13,45,45,45,45,45,45,45,45,45,45,45,45,45,43,43,42,42,42,42,42,46,50,50,51,51,51,51,51,51,51,55,55,55,55,55,42,46,46,46,46,46,41,41,41,41,41,22,22,39,39,39,39,39,39,40,40,39,43,43,43,39,43,43,43,43,43,47,43,47,47,47,43,43,52,52,52,52,52,52,52,52,52,52,52,0,0,0,0,0,0,0,0,0,0,0,0,9,1,1,1,54,27,27,27,27,27,27,27,40,40,40,40,40,45,45,45,45,45,45,45,45,45,45,45,45,45,45,45,40,49,49,49,44,44,44,44,44,44,44,44,44,44,44,44,49,44,44,49,49,44,44,49,45,49,41,41,37,37,41,41,41,37,45,45,45,45,49,49,49,50,45,45,54,54,54,45,45,45,45,45,45,45,45,45,45,41,41,41,41,45,41,41,41,45,45,45,45,45,45,45,45,42,43,43,43,43,43,43,43,43,43,43,43,43,43,43,43,41,41,42,43,41,41,42,42,42,42,41,41,41,45,45,0,0,0,0,0,0,0,0,0
0,0,0,0,0,0,0,0,0,0,0,0,0,0,0,0,0,0,0,0,0,0,0,0,0,0,0,0,0,0,0,0,0,0,0,0,0,0,0,0,0,0,0,0,0,0,0,0,0,0,0,0,0,0,0,0,0,0,0,0,0,0,0,0,0,0,0,0,0,0,0,0,0,0,0,0,0,0,0,0,0,0,0,0,0,0,0,0,0,0,0,0,0,0,0,0,0,0,0,0,0,0,0,0,0,0,0,0,0,0,0,0,0,0,0,0,0,0,0,0,0,0,0,0,0,0,0,0,0,0,0,0,0,0,0,0,0,0,0,0,0,0,0,0,0,0,0,0,0,0,0,0,0,0,0,0,0,0,0,0,0,0,0,0,0,0,0,0,0,0,0,0,0,0,0,0,0,0,0,0,0,0,0,0,0,0,0,0,0,0,0,0,0,0,0,0,0,0,0,0,0,0,0,0,0,0,0,0,0,0,0,0,0,0,0,0,0,0,0,0,0,0,0,0,0,0,0,0,0,0,0,0,0,0,0,0,0,0,0,0,0,0,0,0,0,0,0,0,0,0,0,0,0,0,0,0,0,0,0,0,0,0,0,0,0,0,0,0,0,0,0,0,0,0,0,0,0,0,0,0,0,0,0,0,0,0,0,0,0,0,0,0,0,0,0,0,0,0,0,0,0,0,0,0,0,0,0,0,0,0,0,0,0,0,0,0,0,0,0,0,0,0,0,0,0,0,0,0,0,0,0,0,0,0,0,0,0,0,0,0,0,0,0,0,0,0,0,0,0,0,0,0,0,0,0,0,0,0,0,0,0,0,0,0,0,0,0,0,0,0,0,0,0,0,0,0,0,0,0,0,0,0,0,0,0,0,0,0,0,0,0,0,0,0,0,0,0,0,0,0,0,0,0,0,0,0,0,0,0,0,0,0,0,0,0,0,0,0,0,0,0,0,0,0,0,0,0,0,0,0,0,0,0,0,0,0,0,0,0,0,0,0,0,0,0,0,0,0,0,0,0,0,0,0
0,0,0,0,0,0,0,0,0,0,0,0,0,0,0,0,0,0,0,0,0,0,0,0,0,0,0,0,0,0,0,0,0,0,0,0,0,0,0,0,0,0,0,0,0,0,0,0,0,0,0,0,0,0,0,0,0,0,0,0,0,0,0,0,0,0,0,0,0,0,0,0,0,0,0,0,0,0,0,0,0,0,0,0,0,0,0,0,0,0,0,0,0,0,0,0,0,0,0,0,0,0,0,0,0,0,0,0,0,0,0,0,0,0,0,0,0,0,0,0,0,0,0,0,0,0,0,0,0,0,0,0,0,0,0,0,0,0,0,0,0,0,0,0,0,0,0,0,0,0,0,0,0,0,0,0,0,0,0,0,0,0,0,0,0,0,0,0,0,0,0,0,0,0,0,0,0,0,0,0,0,0,0,0,0,0,0,0,0,0,0,0,0,0,0,0,0,0,0,0,0,0,0,0,0,0,0,0,0,0,0,0,0,0,0,0,0,0,0,0,0,0,0,0,0,0,0,0,0,0,0,0,0,0,0,0,0,0,0,0,0,0,0,0,0,0,0,0,0,0,0,0,0,0,0,0,0,0,0,0,0,0,0,0,0,0,0,0,0,0,0,0,0,0,0,0,0,0,0,0,0,0,0,0,0,0,0,0,0,0,0,0,0,0,0,0,0,0,0,0,0,0,0,0,0,0,0,0,0,0,0,0,0,0,0,0,0,0,0,0,0,0,0,0,0,0,0,0,0,0,0,0,0,0,0,0,0,0,0,0,0,0,0,0,0,0,0,0,0,0,0,0,0,0,0,0,0,0,0,0,0,0,0,0,0,0,0,0,0,0,0,0,0,0,0,0,0,0,0,0,0,0,0,0,0,0,0,0,0,0,0,0,0,0,0,0,0,0,0,0,0,0,0,0,0,0,0,0,0,0,0,0,0,0,0,0,0,0,0,0,0,0,0,0,0,0,0,0,0,0,0,0,0,0,0,0,0,0,0,0,0,0,0,0,0,0,0,0,0,0,0,0,0,0
